ply
format ascii 1.0
element vertex 728
property float x
property float y
property float z
property float nx
property float ny
property float nz
property uchar diffuse_red
property uchar diffuse_green
property uchar diffuse_blue
end_header
0.629082 0.379842 4.1401 0.774192 -0.145848 -0.615918 186 141 109
0.629435 0.379295 4.14098 0.773574 -0.154775 -0.614515 185 140 108
0.648005 0.389215 4.17219 -0.7225 -0.102587 -0.683718 212 175 142
0.654585 0.384764 4.1513 -0.704426 -0.0688784 -0.706427 238 210 175
0.673008 0.391094 4.16113 0.761374 -0.207066 -0.614356 239 217 184
0.678932 0.390862 4.15588 -0.652157 0.39642 -0.646175 246 235 208
1.22179 0.433013 3.63673 0.231048 -0.216488 -0.948551 30 39 101
1.22893 0.433956 3.63609 -0.33116 0.513367 -0.791699 30 38 99
1.2347 0.434089 3.63867 -0.332498 0.373741 -0.865889 16 24 84
1.23919 0.433652 3.63353 -0.160152 -0.554765 -0.816447 16 23 83
1.28094 0.441074 3.66084 -0.691736 0.445693 -0.568207 19 25 83
1.28906 0.441765 3.66704 0.500596 -0.241002 -0.831458 14 21 76
1.29016 0.442336 3.6668 0.472421 -0.265334 -0.840485 13 20 76
1.28937 0.442537 3.66504 0.505018 -0.17902 -0.844339 13 20 76
1.29104 0.446445 3.66713 0.054353 0.330106 -0.942378 19 23 82
1.2996 0.445246 3.66969 0.451279 0.466163 -0.760946 47 53 108
1.30073 0.445409 3.67399 0.510634 -0.00745472 -0.859766 45 51 106
1.295 0.443447 3.66787 0.542725 -0.267013 -0.796338 8 12 69
1.30616 0.445222 3.67342 0.450671 0.466498 -0.761102 55 56 96
1.31623 0.446519 3.68037 0.32076 -0.24924 -0.913779 167 149 138
1.31866 0.45134 3.67887 0.467435 -0.462519 -0.75338 207 182 155
1.32316 0.449341 3.68083 0.61772 -0.298348 -0.727606 199 171 143
1.37581 0.465991 3.77021 -0.492999 0.419542 -0.762192 192 163 135
1.38825 0.466143 3.76413 -0.526976 0.425252 -0.735838 216 192 165
1.39372 0.466029 3.76296 0.299708 0.610577 -0.733056 208 187 161
1.39597 0.465273 3.75939 0.512896 0.355186 -0.781525 212 192 166
1.40451 0.470522 3.77126 0.455981 0.440144 -0.773534 200 179 156
1.42603 0.472305 3.76406 -0.281698 -0.627333 -0.726017 189 172 147
1.43051 0.473932 3.75901 -0.233958 -0.540882 -0.807905 166 147 124
1.45982 0.479453 3.77455 -0.725416 -0.420223 -0.545147 178 176 190
1.4655 0.479465 3.77284 -0.668419 -0.303289 -0.67914 121 151 237
1.46827 0.476652 3.76626 -0.793912 -0.0271973 -0.607424 65 104 225
1.47193 0.476887 3.77222 -0.778586 0.055249 -0.625101 50 89 218
1.47259 0.480446 3.76251 -0.28442 0.0172861 -0.958544 68 107 225
-0.85473 0.279717 5.64374 0.880416 -0.316243 -0.353352 10 11 9
-0.854734 0.279716 5.64375 0.880351 -0.316276 -0.353485 10 11 9
-0.854734 0.279716 5.64375 0.880351 -0.316276 -0.353485 10 11 9
-0.841709 0.284411 5.67801 0.894047 -0.262267 -0.363176 22 24 21
-0.841558 0.284751 5.67621 0.89239 -0.27136 -0.360562 22 24 21
-0.839222 0.288315 5.72205 0.851986 -0.14371 -0.503456 35 37 34
-0.835575 0.293103 5.73694 0.901125 -0.243858 -0.358477 56 61 59
-0.837492 0.293348 5.75877 0.929929 -0.023399 -0.366995 61 67 64
-0.83212 0.294645 5.80417 0.929294 -0.00424698 -0.369316 87 93 93
-0.829578 0.299413 5.82404 0.836979 -0.130341 -0.531486 93 101 101
-0.824652 0.298115 5.83048 0.845996 -0.0461431 -0.531189 92 100 99
0.357846 0.339327 4.03138 0.12774 -0.839781 -0.527684 218 198 168
0.370765 0.343492 4.04168 -0.388133 -0.640743 -0.66242 213 187 155
0.380901 0.340978 4.03819 0.329729 -0.343967 -0.879184 221 191 160
0.377172 0.342064 4.02456 0.154952 -0.845845 -0.510428 212 183 151
0.386694 0.344297 4.02939 0.249183 -0.657239 -0.711298 197 163 130
0.403458 0.343413 4.02188 -0.12632 -0.798111 -0.58912 186 148 116
0.412091 0.345453 4.01585 0.481748 -0.727213 -0.488958 176 138 106
0.420849 0.346367 4.01552 0.274223 -0.770254 -0.575769 198 160 128
0.449287 0.350536 4.02937 -0.0949211 -0.807271 -0.582498 194 156 123
0.45591 0.353313 4.0325 0.0652218 0.0687319 -0.995501 188 147 114
0.461112 0.352881 4.02984 0.320045 -0.232127 -0.918525 183 142 109
0.467151 0.352877 4.03682 0.555763 -0.476705 -0.681088 206 172 141
0.47428 0.355947 4.0334 -0.0084464 -0.398433 -0.917159 224 188 155
0.479669 0.356173 4.04354 -0.293242 -0.420424 -0.858635 243 219 188
0.502936 0.360765 4.02825 0.712716 -0.109604 -0.692837 227 195 165
0.523445 0.363362 4.03212 -0.167266 -0.690319 -0.703905 187 146 115
0.53377 0.363456 4.03552 0.705025 -0.146945 -0.693792 204 163 133
0.541672 0.366786 4.04266 0.773323 0.0496218 -0.632068 203 162 131
0.54535 0.367692 4.05312 -0.107235 -0.81224 -0.573382 201 158 128
0.55499 0.368761 4.0648 0.536341 -0.0941539 -0.838733 172 128 98
0.562509 0.372997 4.0692 0.372464 0.102808 -0.922335 193 149 122
0.568529 0.37314 4.07303 0.185496 0.460444 -0.868091 221 183 154
0.574788 0.372898 4.07194 -0.359703 0.471806 -0.804992 241 225 198
0.584235 0.373525 4.08133 0.648164 0.409371 -0.642105 209 171 142
0.60145 0.378715 4.08357 -0.578544 -0.465096 -0.670054 234 210 182
0.625753 0.385037 4.13225 0.752367 -0.149581 -0.641536 191 145 115
0.650197 0.395329 4.17248 -0.61016 0.0607502 -0.789946 187 149 117
0.652972 0.394293 4.1667 -0.728979 -0.0663674 -0.681311 207 174 142
0.661952 0.39321 4.1536 0.099325 0.385076 -0.917525 250 226 191
0.670154 0.396136 4.15683 0.126454 0.1313 -0.983244 231 198 161
0.676152 0.396189 4.15756 -0.198596 0.307846 -0.930479 253 248 222
1.22731 0.438845 3.63516 0.327193 0.245633 -0.912474 28 36 99
1.23225 0.43871 3.63991 -0.319744 0.417876 -0.850379 20 28 89
1.23713 0.438447 3.63694 -0.258713 0.400001 -0.879242 15 22 82
1.27377 0.446569 3.66713 -0.604961 0.242239 -0.758513 14 22 84
1.27874 0.446454 3.66564 -0.111335 0.0815739 -0.990429 16 24 86
1.29093 0.452167 3.67551 -0.132346 0.471314 -0.871979 92 92 122
1.28365 0.446007 3.66295 0.116533 0.37939 -0.917869 15 20 84
1.2974 0.452094 3.67779 0.451026 0.467623 -0.7602 126 123 138
1.29801 0.449887 3.67749 0.13916 0.663081 -0.735499 91 94 128
1.29767 0.449718 3.67676 0.13954 0.638292 -0.757042 87 90 126
1.30833 0.452268 3.68305 0.352938 0.573114 -0.739577 193 175 164
1.31246 0.451704 3.68167 0.453376 -0.188598 -0.871138 199 175 152
1.31406 0.451829 3.67892 0.495512 -0.347113 -0.796229 201 177 151
1.37931 0.471592 3.76264 0.401697 0.0391142 -0.914937 183 153 126
1.38511 0.47159 3.76534 0.395711 0.0352464 -0.917698 182 152 123
1.39095 0.471595 3.76733 0.510738 0.354083 -0.783436 204 177 150
1.40609 0.475532 3.77786 0.564609 0.241486 -0.789241 196 171 147
1.41908 0.475668 3.76252 -0.747028 -0.122248 -0.653456 241 232 207
1.42487 0.477179 3.75755 -0.28982 -0.62103 -0.728235 232 221 197
1.46265 0.484154 3.77116 -0.0580971 -0.263757 -0.962838 113 126 185
1.46835 0.484169 3.76895 -0.440532 0.196969 -0.875862 103 142 243
1.46837 0.484233 3.76588 -0.790787 0.0156005 -0.611893 102 141 244
-0.863262 0.287182 5.6485 0.88173 -0.312328 -0.353559 12 12 10
-0.853861 0.283502 5.6002 0.883748 -0.301196 -0.358149 11 11 9
-0.855273 0.292753 5.70598 0.843601 -0.32804 -0.425119 29 32 29
-0.844409 0.29523 5.71577 0.888529 -0.14669 -0.434739 44 48 45
-0.843449 0.29859 5.72138 0.878283 0.0704257 -0.472927 55 59 57
-0.837413 0.299516 5.7916 0.929655 -0.00473107 -0.368402 86 93 92
-0.836518 0.301497 5.79266 0.927515 0.0253349 -0.372927 91 98 97
0.33289 0.3424 4.02941 -0.318211 -0.491967 -0.810377 249 242 220
0.339423 0.342455 4.03025 -0.434433 -0.423245 -0.795067 222 205 178
0.348529 0.341515 4.02889 0.0692542 -0.714571 -0.696127 234 219 191
0.357278 0.345029 4.02733 0.088736 -0.842851 -0.530781 226 207 180
0.366462 0.343787 4.03291 0.198775 -0.844248 -0.497729 216 192 161
0.379994 0.34582 4.02345 0.397559 -0.786172 -0.47316 210 181 148
0.394977 0.347213 4.01857 -0.121624 -0.798576 -0.589478 179 139 106
0.404346 0.34914 4.0059 -0.0718213 -0.815637 -0.574089 166 127 94
0.412944 0.351492 4.00138 0.372456 -0.800272 -0.469938 197 160 128
0.42133 0.351788 4.00182 0.210652 -0.83841 -0.502687 204 166 134
0.429705 0.350823 4.01385 -0.49086 -0.543519 -0.680914 192 154 122
0.436252 0.352007 4.01073 0.363923 -0.718103 -0.593202 186 149 118
0.440692 0.352889 4.01586 0.58902 -0.547491 -0.594398 187 150 119
0.453239 0.35828 4.0243 0.781572 -0.231868 -0.579123 209 172 140
0.458684 0.35803 4.02802 0.665078 -0.286386 -0.689677 188 148 116
0.460583 0.358362 4.02649 0.581725 -0.446809 -0.679675 182 141 110
0.466978 0.358657 4.03247 0.410867 0.274561 -0.86937 176 133 100
0.479615 0.362109 4.03951 0.393885 -0.565033 -0.724977 218 181 148
0.511035 0.364565 4.03018 0.0945232 -0.760667 -0.642223 207 166 136
0.518313 0.367385 4.02923 0.0218663 -0.804815 -0.593123 219 181 151
0.526293 0.370385 4.02799 0.0591287 -0.650564 -0.757146 221 184 155
0.532494 0.367494 4.03339 0.77405 -0.165709 -0.611054 205 164 135
0.537489 0.371075 4.03897 0.696702 -0.0393074 -0.716283 170 127 98
0.542612 0.374677 4.04515 0.713401 -0.0558975 -0.698523 166 126 97
0.551226 0.373583 4.05422 0.708377 -0.248411 -0.660677 167 123 95
0.551609 0.37369 4.05433 0.654694 -0.02032 -0.755621 166 122 95
0.556449 0.377354 4.05913 0.663285 -0.00407145 -0.748356 164 120 91
0.563645 0.377641 4.06781 0.778532 -0.184052 -0.600011 172 126 98
0.566359 0.377159 4.07121 0.641127 -0.0108239 -0.767359 182 136 108
0.57324 0.382003 4.07664 0.652073 0.388244 -0.651205 207 165 137
0.579571 0.380789 4.08147 0.645174 0.413578 -0.64242 225 186 157
0.580178 0.379134 4.07786 0.515077 0.526871 -0.676094 223 188 158
0.587649 0.381959 4.09117 0.767097 0.112982 -0.631503 231 196 168
0.58667 0.382407 4.08879 0.771401 0.0914534 -0.629744 222 184 155
0.601654 0.384762 4.08724 -0.118532 0.742301 -0.659499 246 229 202
0.655146 0.395272 4.16127 -0.673147 -0.304681 -0.673827 223 191 159
0.667175 0.401516 4.16061 0.220002 0.499256 -0.838059 234 201 164
0.673281 0.401508 4.15906 -0.200392 0.160723 -0.966443 247 230 198
0.679406 0.401486 4.15703 -0.460003 -0.301229 -0.835259 254 252 232
1.22154 0.438832 3.63374 0.325237 -0.625348 -0.709338 20 29 92
1.22912 0.443126 3.64033 0.303416 -0.0817704 -0.949343 18 26 89
1.2353 0.443334 3.64106 -0.148464 0.338294 -0.929255 22 30 92
1.26158 0.451691 3.66827 0.38254 -0.719191 -0.580024 11 18 85
1.27275 0.453824 3.67016 -0.144805 0.519297 -0.842236 30 39 113
1.28374 0.451817 3.67376 -0.241753 0.771714 -0.588229 52 60 124
1.28927 0.453239 3.67888 -0.589629 0.45017 -0.670586 102 104 137
1.28822 0.456983 3.67856 -0.147034 0.47911 -0.865352 172 166 168
1.33778 0.466949 3.74991 0.332467 -0.283758 -0.899415 190 161 132
1.38499 0.477442 3.76306 0.229039 -0.533928 -0.813918 163 132 105
1.39067 0.475238 3.76938 0.380541 0.170738 -0.908866 185 155 128
1.3931 0.477829 3.7713 0.541352 0.290596 -0.788981 171 141 114
1.39965 0.47692 3.77502 0.545328 0.234452 -0.804767 171 142 115
1.42483 0.482407 3.75371 -0.64478 -0.408133 -0.646287 238 227 204
1.43256 0.482333 3.74599 -0.815775 0.163083 -0.554901 185 169 147
1.4573 0.484183 3.76778 -0.662313 -0.300965 -0.68612 121 109 109
1.46016 0.488961 3.76498 -0.0395587 -0.141811 -0.989103 107 108 147
1.46563 0.488952 3.76615 -0.192086 -0.0600566 -0.979539 89 120 225
1.47245 0.487948 3.76056 -0.262401 0.0511039 -0.963605 54 94 212
-0.85697 0.298489 5.69052 0.831886 -0.127412 -0.540122 34 37 35
-0.85506 0.30289 5.70861 0.785594 -0.100457 -0.610533 50 53 51
-0.835823 0.308185 5.81345 0.892529 -0.27083 -0.360616 91 98 98
0.348092 0.34716 4.02358 0.169433 -0.48805 -0.856212 227 209 182
0.352332 0.347689 4.02006 0.528676 -0.229512 -0.817206 240 223 197
0.386957 0.35089 4.01114 0.251873 -0.840152 -0.480318 204 176 146
0.394952 0.353037 4.01041 -0.121673 -0.798636 -0.589386 201 167 133
0.400352 0.353488 4.0014 -0.682476 0.0866707 -0.725751 198 163 131
0.428811 0.356484 4.01321 0.147212 -0.847575 -0.509849 196 160 128
0.440473 0.359388 4.0084 0.696645 -0.239367 -0.676305 207 169 138
0.447002 0.35953 4.0147 0.649967 -0.547029 -0.527543 203 167 135
0.457579 0.364489 4.02027 -0.0287186 -0.742732 -0.668973 216 181 149
0.46127 0.364794 4.02369 0.0319355 -0.817683 -0.574782 206 170 139
0.497884 0.370672 4.0252 0.182214 -0.458748 -0.869683 183 139 107
0.504746 0.370536 4.02022 0.531703 -0.489832 -0.69091 182 140 108
0.510865 0.370248 4.02563 -0.00869321 -0.757046 -0.653304 182 141 110
0.532942 0.374996 4.03359 0.670876 -0.0704332 -0.738217 191 153 125
0.538172 0.378751 4.04089 0.780975 0.0416864 -0.623169 221 190 160
0.547548 0.378545 4.05122 0.767648 -0.0950917 -0.633778 200 160 132
0.552653 0.382156 4.05711 0.759027 -0.0610547 -0.64819 214 174 146
0.561513 0.381195 4.06541 0.78159 0.0420054 -0.622377 165 118 91
0.566682 0.38455 4.07263 0.59289 0.191031 -0.782297 170 124 95
0.575438 0.388022 4.08247 0.670993 0.369163 -0.643029 178 130 101
0.582071 0.386428 4.08263 0.733562 -0.00709483 -0.679585 192 148 120
0.591932 0.386741 4.09468 0.0169512 0.334003 -0.942419 247 229 201
0.594929 0.39189 4.09808 -0.105032 0.413246 -0.904542 250 233 205
0.602144 0.391619 4.08696 -0.446485 0.650422 -0.614494 241 218 190
0.610066 0.390992 4.081 -0.413417 0.68368 -0.601389 217 185 155
0.647235 0.40126 4.18093 -0.38296 0.208289 -0.899976 169 126 96
0.651252 0.4035 4.17199 -0.722891 -0.115664 -0.681212 191 149 119
0.673697 0.407935 4.15734 -0.289767 -0.542106 -0.788769 239 220 186
1.03226 0.429541 3.77272 0.184583 0.397576 -0.898812 151 158 189
1.03839 0.431803 3.78011 0.537431 0.426814 -0.727322 93 109 164
1.23719 0.450024 3.65097 -0.512815 0.628019 -0.585332 17 24 88
1.25383 0.452189 3.66227 0.56671 -0.0735195 -0.820631 12 18 86
1.26382 0.456707 3.6682 0.361401 0.0423292 -0.931449 22 32 108
1.26482 0.454255 3.67058 0.528856 -0.170745 -0.831359 12 20 93
1.2711 0.458961 3.6718 0.111453 0.732688 -0.671377 85 91 142
1.26957 0.453917 3.66957 0.267641 0.0638855 -0.961398 23 30 105
1.2772 0.456531 3.67427 0.0764069 0.726364 -0.68305 72 79 134
1.28095 0.456606 3.67675 0.0934516 0.724413 -0.683002 90 94 141
1.28537 0.461726 3.6812 -0.6674 0.472131 -0.575908 174 157 140
1.29012 0.461182 3.67603 0.586367 -0.419738 -0.692816 214 194 167
1.29652 0.461662 3.68122 0.586497 -0.4165 -0.694657 211 188 162
1.29984 0.462486 3.68465 0.642955 -0.169971 -0.746805 217 193 167
1.33712 0.473714 3.75358 0.583066 -0.418168 -0.696541 172 144 113
1.38827 0.482454 3.76594 0.187006 -0.412315 -0.891642 171 139 112
1.39636 0.483817 3.7696 0.407152 0.160667 -0.899118 160 127 99
1.40359 0.482574 3.77069 0.307967 0.46128 -0.832092 168 135 108
1.42981 0.487176 3.74444 -0.81932 0.143577 -0.555068 223 211 188
1.44101 0.490053 3.75373 0.619847 -0.0616578 -0.782296 143 125 104
1.46329 0.494973 3.76667 -0.134907 -0.228156 -0.964233 98 115 190
1.46874 0.494827 3.76702 -0.120334 -0.358489 -0.925746 77 115 230
-0.864947 0.305567 5.69201 0.898206 -0.204913 -0.388892 38 41 39
-0.85866 0.307069 5.70785 0.803961 -0.103544 -0.585599 55 59 57
-0.851573 0.307102 5.7219 0.730197 -0.150707 -0.666408 70 76 74
0.327642 0.34813 4.03245 -0.34316 0.354814 -0.869683 246 236 213
0.339722 0.351255 4.02029 -0.653308 0.242553 -0.717187 221 205 177
0.357801 0.350472 4.01372 0.11953 -0.560106 -0.819752 240 223 196
0.39327 0.360266 4.01042 -0.52988 -0.486618 -0.694572 249 239 215
0.422625 0.36335 3.99153 0.489558 0.242497 -0.837573 231 203 171
0.428535 0.36335 3.99492 0.482945 0.242436 -0.841421 209 175 144
0.434039 0.363429 4.00224 0.485638 -0.707432 -0.513513 207 169 138
0.449853 0.368096 4.00975 -0.126146 -0.801983 -0.583876 201 164 130
0.461224 0.370352 4.01533 -0.133679 -0.79824 -0.587318 219 183 152
0.469767 0.367871 4.02047 0.753719 -0.289456 -0.590019 204 165 134
0.481131 0.373605 4.02811 0.245254 -0.842867 -0.478984 197 162 131
0.489425 0.372406 4.02585 0.358373 -0.803311 -0.475668 186 145 113
0.49836 0.376518 4.01956 0.198572 -0.847228 -0.49272 172 129 97
0.519471 0.377102 4.01549 -0.0608147 -0.453524 -0.889167 217 181 151
0.526259 0.379337 4.02769 0.746824 0.135858 -0.650996 213 175 145
0.532389 0.377977 4.03462 0.626018 0.259756 -0.735274 225 193 164
0.535295 0.38344 4.03972 0.730112 0.255491 -0.633767 204 166 136
0.543294 0.383026 4.04586 0.768408 -0.0543601 -0.637647 211 172 144
0.56114 0.389823 4.06602 0.698747 0.0418387 -0.714145 183 140 112
0.56921 0.38959 4.07697 0.67811 0.358566 -0.641558 175 130 100
0.566444 0.386567 4.07328 0.744923 0.201473 -0.636002 171 125 96
0.58659 0.390472 4.09116 0.768252 0.095712 -0.632952 197 156 127
0.592866 0.39691 4.09853 -0.0308672 0.0197869 -0.999328 214 182 154
0.598698 0.396928 4.09902 -0.0171907 0.0755766 -0.996992 241 212 185
0.641014 0.408581 4.178 0.0596498 -0.0336777 -0.997651 151 107 79
0.64835 0.409057 4.17543 -0.623821 0.065101 -0.778851 175 132 104
0.667944 0.412005 4.15967 -0.183512 -0.591496 -0.785147 229 202 167
0.680039 0.410041 4.15448 -0.0828773 -0.729712 -0.678713 247 238 208
1.02877 0.434695 3.77435 0.171055 0.360318 -0.917012 173 173 188
1.11878 0.438474 3.64582 -0.49607 0.418418 -0.760816 29 50 160
1.12327 0.438206 3.64216 0.311278 -0.111548 -0.94375 23 38 140
1.23654 0.455475 3.65048 -0.167949 0.749741 -0.640064 23 30 98
1.2448 0.456484 3.66095 -0.11913 0.707406 -0.696696 23 31 104
1.25003 0.456465 3.6606 -0.0383402 -0.0791216 -0.996127 20 28 99
1.25818 0.45669 3.66591 0.411461 0.110067 -0.904757 18 26 101
1.27108 0.459057 3.67047 -0.191594 0.773317 -0.604377 93 98 146
1.26742 0.458802 3.66955 0.100878 0.737349 -0.667937 62 71 136
1.27108 0.459057 3.67047 -0.191594 0.773317 -0.604377 93 98 146
1.2833 0.462368 3.68163 -0.666846 0.483063 -0.56742 165 147 132
1.30738 0.474213 3.73451 -0.755267 -0.30739 -0.578864 192 162 132
1.33094 0.475019 3.74812 0.430302 -0.557782 -0.709731 186 159 129
1.33719 0.47679 3.75217 0.00917713 0.0672204 -0.997696 163 135 105
1.34336 0.480876 3.75077 0.551308 -0.265994 -0.790763 177 149 120
1.349 0.47814 3.75342 -0.391294 -0.742412 -0.543796 184 159 130
1.37323 0.4824 3.74956 0.558111 -0.466462 -0.68624 180 150 122
1.37958 0.482266 3.75904 0.516284 -0.546213 -0.659622 171 140 112
1.38247 0.482508 3.75822 0.407322 -0.68878 -0.599725 169 138 110
1.4066 0.488298 3.7763 0.421718 0.468592 -0.776258 160 128 100
1.43613 0.494491 3.74965 0.620279 -0.0177042 -0.784181 158 141 121
1.45694 0.494672 3.76526 0.435294 0.0651379 -0.897929 122 108 110
1.46614 0.5001 3.76634 0.231673 -0.101345 -0.9675 95 126 232
1.47232 0.500209 3.76852 0.0440427 0.288953 -0.95633 62 98 221
-0.880973 0.308298 5.66366 0.723709 -0.476803 -0.498903 35 36 32
-0.871625 0.311345 5.6836 0.928794 -0.0776852 -0.362363 45 49 46
-0.870503 0.312656 5.6871 0.901147 -0.168691 -0.399346 49 52 50
-0.871831 0.311349 5.6843 0.930036 -0.0761046 -0.359502 45 49 46
-0.871831 0.311349 5.6843 0.930036 -0.0761046 -0.359502 45 49 46
-0.868188 0.311419 5.69929 0.865413 -0.303125 -0.398968 50 54 51
0.341926 0.358053 4.01297 -0.571674 -0.407375 -0.712204 223 206 177
0.347634 0.357823 4.01878 0.523854 -0.69626 -0.490713 218 200 169
0.362746 0.358737 4.00742 -0.0849501 0.621732 -0.778609 234 212 182
0.401038 0.362402 4.00532 -0.629331 -0.300694 -0.716607 253 245 220
0.414047 0.366913 3.99742 0.027435 0.399633 -0.916265 244 226 200
0.429684 0.36993 3.99533 0.683125 0.387785 -0.61884 220 193 163
0.435693 0.36848 4.00127 0.683972 0.386301 -0.618832 209 173 142
0.444815 0.370204 4.00076 0.667871 0.0712593 -0.740858 220 186 155
0.451813 0.373267 4.00308 -0.0707016 -0.637552 -0.767157 206 169 136
0.459389 0.371079 4.01496 -0.124195 -0.802098 -0.584136 210 173 141
0.470626 0.374831 4.00307 0.0504305 -0.329742 -0.942723 227 199 168
0.475914 0.377174 4.00586 0.627725 -0.140665 -0.76562 239 217 189
0.489242 0.377335 4.01479 0.234075 -0.844129 -0.482343 218 188 161
0.507287 0.381014 4.01329 0.248805 -0.453163 -0.856002 182 139 108
0.513405 0.380929 4.01426 -0.264329 -0.514373 -0.815813 199 160 128
0.522938 0.382397 4.01596 0.0630322 -0.489314 -0.869827 204 166 135
0.530169 0.386897 4.03409 0.717979 -0.369598 -0.589834 192 152 123
0.539388 0.387767 4.04307 0.585843 0.111663 -0.802695 198 156 128
0.553667 0.39061 4.05965 0.727618 0.0420725 -0.684692 194 151 123
0.562498 0.390627 4.06731 0.547032 0.193897 -0.814346 172 129 100
0.565339 0.393708 4.06869 0.393963 0.294758 -0.870581 170 126 97
0.571437 0.395598 4.08237 0.668215 -0.495587 -0.554871 162 116 86
0.585525 0.398988 4.09122 0.76655 0.0973001 -0.63477 190 146 116
0.595797 0.402186 4.09815 0.339771 0.0355418 -0.939836 191 150 120
0.644615 0.414922 4.17556 -0.635776 -0.277992 -0.720076 144 101 73
0.653485 0.413526 4.17419 -0.654668 -0.235329 -0.718352 171 129 100
0.661911 0.41543 4.16526 -0.694569 -0.116779 -0.709885 222 196 165
0.674176 0.41441 4.15599 -0.317149 -0.728469 -0.607248 227 199 163
0.680446 0.415191 4.15005 -0.301181 -0.665841 -0.682603 234 215 181
0.725176 0.418892 4.07553 0.17883 0.138323 -0.974108 251 245 218
0.730972 0.418951 4.07843 0.045576 0.126604 -0.990906 236 215 176
1.02372 0.435666 3.77214 0.47393 0.132016 -0.87061 193 193 201
1.10825 0.442754 3.64789 -0.697405 0.299528 -0.651084 30 52 166
1.11641 0.443229 3.64729 0.0431017 0.535426 -0.843482 40 62 170
1.11989 0.442542 3.64039 -0.289067 0.0114304 -0.957241 32 53 158
1.12469 0.442811 3.64119 -0.384641 -0.0372118 -0.922316 15 31 128
1.2452 0.468253 3.71658 -0.65421 0.499462 -0.567933 28 37 114
1.24685 0.466696 3.70954 -0.561008 0.611055 -0.558464 35 44 117
1.22604 0.456284 3.64504 -0.684325 0.447416 -0.575776 19 28 99
1.23055 0.457348 3.65141 -0.218036 0.65042 -0.727609 22 31 102
1.26896 0.469912 3.69209 -0.305747 0.788559 -0.533567 165 138 120
1.26711 0.463379 3.66673 -0.256129 0.725118 -0.63922 158 156 174
1.29626 0.477908 3.73655 -0.66643 -0.241676 -0.705311 238 219 190
1.30234 0.478712 3.73667 -0.516355 -0.563635 -0.644743 219 192 164
1.31435 0.478375 3.73878 0.603241 0.176359 -0.777816 196 167 137
1.3307 0.481266 3.74593 0.124786 -0.130781 -0.983527 204 177 148
1.34792 0.482794 3.74401 0.273566 -0.610257 -0.74347 175 147 118
1.36973 0.487861 3.74369 0.627124 -0.215312 -0.748569 182 151 123
1.37924 0.488839 3.7541 0.508386 -0.539315 -0.67133 170 139 111
1.38594 0.488585 3.7606 0.592603 -0.348421 -0.72624 164 133 105
1.41378 0.494107 3.78022 0.245426 -0.0121266 -0.969339 162 135 111
1.43116 0.498657 3.74723 -0.22116 0.21818 -0.950519 212 198 177
1.44124 0.498384 3.76621 0.597677 0.11632 -0.793254 145 127 106
1.44577 0.498518 3.7618 -0.10576 0.784956 -0.610458 137 118 99
1.45631 0.504058 3.77738 -0.24818 0.791837 -0.558033 134 117 109
1.45921 0.49973 3.76228 0.543835 -0.202611 -0.814366 116 109 137
1.46474 0.505799 3.76866 -0.117836 0.220435 -0.968258 97 116 210
1.47145 0.503425 3.76958 0.408367 0.0125858 -0.912731 73 109 231
1.47855 0.502842 3.76578 0.303346 0.488032 -0.818417 35 69 191
-0.883916 0.315691 5.65771 0.74564 -0.398822 -0.533818 42 43 41
-0.867566 0.317691 5.69633 0.91994 -0.110079 -0.376288 69 74 72
-0.864111 0.316485 5.70231 0.837099 -0.394954 -0.378519 72 76 73
-0.86252 0.319849 5.72604 0.897001 -0.248854 -0.365323 84 90 88
0.328834 0.358585 4.01959 0.390115 0.0802266 -0.917264 232 221 197
0.334806 0.358522 4.01858 -0.570572 -0.401206 -0.716576 228 214 187
0.348914 0.364446 4.01266 0.395062 0.065987 -0.916281 243 230 206
0.354407 0.364452 4.01537 0.388883 0.068643 -0.918726 232 213 184
0.360289 0.364395 4.01489 0.134944 0.210875 -0.968154 226 204 174
0.366 0.364235 4.01404 -0.588808 -0.31925 -0.742553 235 213 184
0.390383 0.366015 4.01615 -0.352984 0.286953 -0.890539 229 203 172
0.397239 0.368147 4.00695 -0.544653 0.147463 -0.825595 233 201 168
0.403845 0.368813 4.00217 -0.517039 -0.297775 -0.802496 246 228 199
0.410918 0.371917 3.9986 0.177569 -0.528057 -0.830437 226 205 176
0.421788 0.372362 3.99694 0.67846 0.158712 -0.717288 241 220 190
0.440092 0.373537 3.99894 0.420804 -0.0276289 -0.906731 240 215 185
0.445569 0.376581 4.00266 0.627816 0.223604 -0.745553 224 198 168
0.481299 0.379597 4.00945 0.699085 0.232326 -0.676244 235 213 184
0.498502 0.38209 4.01109 0.244499 -0.842605 -0.47983 214 183 153
0.503622 0.384245 4.01294 0.735918 -0.376129 -0.562985 211 177 146
0.509463 0.38825 4.01296 0.624607 -0.574344 -0.529146 220 182 153
0.519841 0.390435 4.01755 0.632841 -0.488667 -0.600597 211 173 142
0.530696 0.39276 4.03343 0.790343 -0.0903529 -0.605966 197 158 129
0.543928 0.391763 4.04734 0.78957 -0.0396105 -0.612381 175 133 105
0.549945 0.395447 4.05677 0.757442 0.0535411 -0.650704 164 122 94
0.558183 0.394871 4.0652 0.745719 0.0174039 -0.666033 176 133 104
0.562623 0.398927 4.06954 0.65365 -0.0177441 -0.756589 160 116 87
0.570466 0.399142 4.07418 0.495741 -0.335979 -0.800849 161 116 86
0.57949 0.399952 4.08255 0.647405 -0.509875 -0.566475 171 126 97
0.583385 0.403767 4.07703 0.120527 -0.451662 -0.884011 188 149 120
0.59045 0.402704 4.09546 0.504074 0.152495 -0.850091 185 143 112
0.601529 0.407747 4.08395 0.25837 -0.837628 -0.481273 198 159 129
0.614314 0.408931 4.08414 0.717026 -0.38692 -0.579799 178 134 106
0.644444 0.419295 4.1656 -0.145706 -0.474481 -0.868123 145 101 74
0.650826 0.421183 4.16726 -0.324874 -0.620924 -0.71338 143 100 71
0.65689 0.419414 4.16551 -0.637797 -0.271327 -0.720831 179 141 111
0.662766 0.422897 4.15306 -0.618832 0.0204507 -0.785257 224 196 166
0.667972 0.418798 4.14884 -0.286763 -0.0533704 -0.956514 249 235 203
0.674514 0.419147 4.15032 -0.236942 -0.537881 -0.809038 244 223 190
0.717427 0.419994 4.07523 -0.397039 0.688626 -0.606757 253 248 223
0.725063 0.424997 4.08372 -0.0269331 0.639499 -0.76832 243 217 176
0.731831 0.422105 4.08085 -0.222616 0.630915 -0.743229 230 201 161
1.0165 0.442664 3.76743 0.428063 0.123381 -0.895287 185 185 190
1.02057 0.440893 3.77233 0.316276 0.091563 -0.944238 186 186 193
1.01525 0.44195 3.76523 0.442239 0.30312 -0.844123 186 187 192
1.02257 0.443983 3.77433 0.408064 0.335094 -0.849232 154 151 165
1.09807 0.443056 3.65236 -0.693381 0.179599 -0.69783 31 56 172
1.10257 0.445976 3.64955 -0.468239 0.14027 -0.872397 31 53 167
1.10263 0.446411 3.65421 -0.654889 0.0504888 -0.754037 31 53 166
1.11183 0.447623 3.6428 -0.43004 0.402202 -0.808269 30 50 154
1.1177 0.447764 3.64301 -0.569463 0.38817 -0.724594 25 43 144
1.1244 0.448611 3.64205 -0.494111 0.589368 -0.63914 18 34 128
1.18438 0.458325 3.64672 0.0927124 0.532389 -0.841407 21 31 108
1.18723 0.45889 3.64725 -0.0128037 0.531439 -0.847 13 23 100
1.19715 0.456474 3.63907 -0.569088 0.574317 -0.588471 19 30 104
1.21409 0.46275 3.64557 -0.710638 0.395224 -0.582057 31 44 120
1.21874 0.464247 3.64931 -0.161771 0.537847 -0.827376 14 25 111
1.22475 0.462217 3.65138 -0.685007 0.444834 -0.576964 14 25 106
1.25427 0.473208 3.71124 -0.118468 0.746924 -0.654271 120 114 134
1.28649 0.478972 3.74453 -0.680575 0.0523108 -0.730809 184 151 123
1.29086 0.482213 3.74044 -0.674143 0.0180315 -0.73838 215 183 153
1.29658 0.480103 3.7372 -0.462844 -0.445217 -0.766523 242 228 200
1.30231 0.480194 3.73609 -0.421003 -0.426635 -0.800462 231 208 180
1.30802 0.480058 3.73654 -0.46814 -0.519486 -0.714828 192 161 131
1.31215 0.485674 3.73823 0.595894 0.17349 -0.784099 205 176 147
1.31815 0.483439 3.74193 0.615535 0.131372 -0.777083 206 178 148
1.3281 0.486329 3.74665 0.180992 0.68717 -0.70359 198 170 141
1.33356 0.486196 3.74481 -0.285184 -0.303572 -0.909128 229 207 179
1.33981 0.486572 3.75036 -0.451309 -0.483887 -0.749782 238 217 190
1.34397 0.487891 3.74793 0.295691 -0.782254 -0.548312 230 207 179
1.34414 0.487199 3.74922 0.317309 -0.771268 -0.55178 226 203 175
1.35051 0.487771 3.74494 0.238417 -0.82451 -0.513166 178 149 121
1.35193 0.488876 3.74415 -0.210806 -0.822753 -0.527863 173 144 116
1.35852 0.489515 3.73632 -0.573276 -0.269111 -0.773908 169 137 109
1.36349 0.488428 3.73575 0.514488 -0.51194 -0.68791 180 149 121
1.37881 0.495416 3.74391 0.539903 -0.498572 -0.678182 149 118 90
1.38482 0.495107 3.75717 0.546838 -0.481381 -0.685011 148 116 89
1.40759 0.501743 3.76028 0.571133 -0.16326 -0.804458 212 188 165
1.43976 0.506067 3.76633 0.597677 0.11632 -0.793254 201 186 166
1.43394 0.503425 3.75124 0.309635 0.580853 -0.752819 204 189 168
1.44572 0.504505 3.76992 -0.136835 0.788567 -0.599532 169 151 133
1.46105 0.50653 3.77453 -0.539776 0.065989 -0.839218 135 128 152
1.46193 0.51067 3.76992 -0.794484 -0.253541 -0.551827 138 134 166
1.46741 0.508027 3.76802 0.598743 -0.0462398 -0.799605 91 124 232
1.47564 0.50802 3.7641 0.254916 -0.114427 -0.960169 43 75 204
1.47565 0.508023 3.76413 0.251304 -0.10033 -0.962694 43 75 204
-0.886134 0.316667 5.64141 0.871162 -0.342464 -0.351846 37 39 36
-0.874723 0.32103 5.68486 0.801629 -0.479305 -0.357292 70 72 71
0.325582 0.363838 4.02125 -0.112516 -0.787376 -0.606118 249 242 220
0.332304 0.363652 4.01437 -0.65848 0.0534327 -0.750699 238 229 208
0.357253 0.369614 4.0151 0.273282 0.0754476 -0.958971 212 183 153
0.362384 0.369077 4.01119 -0.269059 -0.683806 -0.678245 229 207 177
0.368748 0.370562 4.0086 0.31041 -0.175563 -0.93425 243 226 196
0.381594 0.370364 4.01888 -0.419499 -0.593663 -0.68672 210 179 145
0.388366 0.371603 4.01423 -0.457645 -0.562489 -0.688598 205 166 131
0.393 0.373229 4.01057 -0.393561 -0.641442 -0.65853 214 175 141
0.399269 0.375467 4.00654 -0.441057 -0.5955 -0.671452 218 186 153
0.408686 0.377092 3.99807 -0.654611 0.259911 -0.709881 219 192 161
0.426336 0.376811 3.99862 0.481373 0.527417 -0.70008 241 218 188
0.432287 0.377952 4.00332 0.490047 0.511414 -0.70591 239 217 188
0.440029 0.37849 3.99917 0.524526 0.175783 -0.83305 245 226 197
0.448543 0.381368 4.00497 0.602344 0.0151117 -0.798094 214 182 150
0.457198 0.383033 4.00498 -0.176698 -0.693852 -0.698102 217 182 150
0.463439 0.382889 4.00007 0.161983 -0.0627551 -0.984796 222 183 151
0.472367 0.382023 4.00156 0.78743 -0.0514523 -0.614253 244 223 195
0.477038 0.386121 4.00536 0.626978 -0.104686 -0.771971 218 183 151
0.500911 0.389828 4.00571 0.765654 -0.285677 -0.576335 248 235 207
0.50546 0.392508 4.00645 0.701443 -0.155028 -0.695661 243 221 191
0.521966 0.39293 4.02091 0.779643 -0.166724 -0.603622 213 175 145
0.524998 0.394229 4.02259 0.791699 -0.106833 -0.601498 204 164 135
0.524811 0.394039 4.02355 0.790741 -0.124193 -0.599421 204 165 135
0.536332 0.39585 4.0448 0.71523 -0.416252 -0.56141 221 184 155
0.532117 0.395211 4.03696 0.77032 -0.247394 -0.58771 197 158 130
0.539438 0.395937 4.04455 0.230061 0.209226 -0.950419 222 184 156
0.540719 0.396013 4.04446 0.254716 0.149896 -0.955328 219 180 152
0.544726 0.39888 4.04906 0.574025 -0.0465652 -0.817513 209 169 140
0.545783 0.399096 4.04683 0.529443 0.0255667 -0.84796 203 163 134
0.549909 0.401943 4.05244 0.773902 0.101236 -0.625162 178 136 107
0.557777 0.402785 4.06365 0.614858 -0.00898735 -0.788587 201 159 129
0.562541 0.40602 4.06755 0.396779 -0.501427 -0.768855 201 161 132
0.568079 0.404247 4.07045 0.313873 -0.38708 -0.866979 164 121 91
0.574115 0.404213 4.07233 0.294625 0.343623 -0.891695 180 137 109
0.581942 0.409584 4.07833 0.393376 -0.365209 -0.843728 237 214 186
0.588538 0.409269 4.09417 0.518416 -0.685005 -0.511872 227 201 173
0.591156 0.409765 4.09057 0.0284996 -0.839801 -0.542145 231 204 175
0.605513 0.413682 4.08223 0.52399 -0.363494 -0.770264 191 152 123
0.611825 0.414018 4.08146 0.220626 -0.267614 -0.937927 172 129 100
0.617188 0.413964 4.08517 0.761175 -0.104594 -0.640057 165 120 92
0.629843 0.419082 4.15124 0.744657 -0.294715 -0.598856 155 112 84
0.638849 0.424078 4.16969 0.405995 -0.760497 -0.506766 144 100 73
0.646492 0.426077 4.16589 0.516291 -0.160875 -0.841168 140 97 69
0.671211 0.424425 4.14963 -0.365827 0.0181931 -0.930505 235 215 183
0.717471 0.425902 4.07794 0.00969932 0.547476 -0.836765 252 243 213
0.718081 0.429959 4.08054 0.292231 0.708429 -0.642441 252 238 205
0.731507 0.429195 4.08858 -0.396533 0.706948 -0.58565 231 205 166
0.738156 0.430031 4.095 0.351567 0.672687 -0.65107 234 211 176
1.01292 0.447892 3.76892 0.336315 0.232965 -0.91248 183 180 184
1.01778 0.447169 3.77074 0.530517 0.258935 -0.807158 171 165 176
1.04559 0.449702 3.738 -0.694894 -0.0572525 -0.71683 26 31 117
1.04893 0.448014 3.71993 -0.352621 -0.707278 -0.612712 21 28 130
1.05324 0.446812 3.71486 -0.756601 -0.0692072 -0.650204 22 42 169
1.09866 0.449698 3.65228 -0.652125 0.0574397 -0.755933 45 67 183
1.09543 0.446927 3.6465 -0.750258 0.236144 -0.617534 50 74 192
1.10616 0.450125 3.65346 -0.710729 -0.0586854 -0.701013 31 50 156
1.10915 0.452612 3.64923 -0.52804 0.304073 -0.792915 43 60 160
1.11614 0.453042 3.65033 -0.270868 0.591554 -0.759404 13 30 128
1.12385 0.45451 3.64982 -0.708384 0.369181 -0.601579 14 30 124
1.17709 0.461324 3.65045 0.0199947 0.738374 -0.674095 18 30 110
1.18441 0.464064 3.65346 0.0701881 0.34249 -0.936896 33 45 128
1.19032 0.463959 3.65171 -0.196188 -0.0227148 -0.980303 16 26 108
1.19711 0.463263 3.64967 -0.506002 0.658826 -0.556696 21 32 111
1.20478 0.462187 3.63656 -0.508611 0.656699 -0.556832 10 21 101
1.21112 0.46776 3.64491 0.0535591 0.421999 -0.905013 21 36 133
1.217 0.467714 3.64904 0.145928 -0.470478 -0.870262 31 46 136
1.24983 0.47818 3.72783 -0.699025 0.407344 -0.587737 169 162 167
1.27466 0.481774 3.74827 0.642563 -0.0238424 -0.765862 178 144 117
1.27566 0.480962 3.74342 0.566169 0.203604 -0.798748 180 144 116
1.28286 0.482049 3.74383 -0.785165 0.0333974 -0.618385 178 142 113
1.2867 0.485713 3.7448 -0.809966 0.0738235 -0.581812 202 167 137
1.28568 0.487084 3.74381 -0.734836 0.300873 -0.607858 202 168 138
1.29546 0.486728 3.74101 -0.811073 -0.028459 -0.584252 226 204 175
1.30052 0.485857 3.73545 -0.546744 -0.293008 -0.784358 254 249 226
1.30622 0.485704 3.73566 0.437728 -0.340238 -0.832245 244 228 200
1.31532 0.49038 3.73779 0.372679 0.231801 -0.898543 202 171 142
1.32804 0.493238 3.74775 0.25874 -0.814965 -0.518542 196 167 138
1.33661 0.491258 3.74949 -0.672636 -0.480228 -0.562976 197 169 141
1.3438 0.492774 3.73992 -0.250524 -0.809341 -0.531229 227 206 178
1.3439 0.492308 3.74116 -0.397913 -0.691684 -0.602693 229 207 179
1.35157 0.493767 3.73649 0.113801 -0.859841 -0.497718 216 192 164
1.35148 0.49282 3.74111 0.162721 -0.853819 -0.494484 214 189 161
1.35975 0.497169 3.74051 0.149625 -0.711635 -0.686431 165 134 106
1.35829 0.495921 3.73168 -0.370915 -0.718531 -0.588332 161 131 102
1.36544 0.495019 3.73664 -0.34137 -0.431257 -0.835155 159 127 99
1.37269 0.495427 3.73894 0.375531 -0.418071 -0.827159 160 129 101
1.38452 0.50169 3.74504 0.526978 -0.528069 -0.66591 141 109 82
1.43555 0.51051 3.76798 0.30791 0.587277 -0.74853 167 149 128
1.46253 0.514451 3.76791 -0.661692 -0.496851 -0.561518 141 139 177
1.47667 0.514584 3.77116 0.280994 -0.222187 -0.933636 49 83 215
1.47955 0.515638 3.76873 -0.72268 -0.431043 -0.540311 31 63 190
-0.91375 0.316731 5.61765 0.849341 -0.402013 -0.342061 19 20 18
-0.913375 0.322708 5.63879 0.930714 -0.0910043 -0.354246 30 32 29
-0.885989 0.323094 5.64958 0.745265 -0.389946 -0.540854 50 52 50
-0.883396 0.330189 5.66797 0.681617 -0.362879 -0.635387 73 76 74
-0.713316 0.354849 5.66369 0.625276 -0.402807 -0.668414 130 150 161
0.333002 0.370115 4.01047 -0.36655 -0.120243 -0.922596 245 238 219
0.343332 0.370723 4.01273 -0.0950545 0.15767 -0.982906 213 190 159
0.34932 0.37072 4.01305 0.0752375 0.248829 -0.965621 200 171 137
0.381713 0.377081 4.01202 -0.423895 -0.611417 -0.668194 225 201 170
0.381734 0.377094 4.01182 -0.423434 -0.612675 -0.667333 225 201 170
0.381734 0.377094 4.01182 -0.423434 -0.612675 -0.667333 225 201 170
0.388903 0.378195 4.00615 -0.426043 -0.611688 -0.666577 226 199 168
0.411265 0.382201 3.99924 0.166558 -0.297054 -0.940222 233 205 175
0.417154 0.3822 4.00021 0.469223 -0.373257 -0.800318 231 203 172
0.423088 0.382166 4.00222 0.509064 -0.280025 -0.813904 234 205 175
0.441597 0.386679 3.99909 -0.378188 -0.0811194 -0.922168 235 213 185
0.449374 0.386129 3.99632 -0.0785148 -0.635178 -0.768365 212 186 154
0.463629 0.389736 3.99734 0.64812 -0.0465717 -0.760113 227 196 166
0.468842 0.387013 4.00114 0.641538 0.113265 -0.758683 217 179 146
0.473317 0.390692 4.00493 0.729578 -0.0488173 -0.682153 205 165 132
0.487412 0.392821 4.00625 -0.179432 -0.413125 -0.892823 194 153 121
0.507046 0.397968 4.01091 0.585268 0.0383183 -0.809934 192 153 123
0.50709 0.398005 4.01126 0.506297 0.0640305 -0.859979 192 153 123
0.515692 0.39517 4.01223 0.612298 -0.5356 -0.58157 220 183 152
0.521015 0.39898 4.01665 0.791964 -0.0871479 -0.604317 202 161 131
0.535014 0.402278 4.04067 0.691905 -0.4639 -0.553231 158 115 87
0.533642 0.402579 4.03787 0.687155 -0.163813 -0.707802 159 116 87
0.535559 0.401681 4.04073 0.741121 -0.352361 -0.571473 160 117 89
0.54034 0.403033 4.04311 0.655763 -0.0993512 -0.748401 151 109 81
0.540986 0.402773 4.04399 0.528895 -0.0256784 -0.848299 157 115 86
0.552755 0.406254 4.05833 0.699813 -0.445368 -0.558489 164 123 93
0.569357 0.409053 4.06949 0.48314 0.393397 -0.782186 180 138 108
0.575845 0.409512 4.07485 0.171695 0.165667 -0.971121 222 189 160
0.583623 0.415061 4.07793 0.567889 -0.391772 -0.72389 186 146 116
0.590376 0.416074 4.07964 0.672948 -0.473961 -0.567894 172 132 103
0.60765 0.419121 4.08024 -0.174911 -0.498605 -0.848999 160 118 90
0.635945 0.426502 4.13384 0.691698 -0.444375 -0.569285 146 103 75
0.660736 0.42992 4.15373 -0.529909 -0.151135 -0.834479 226 201 173
0.718048 0.436214 4.08819 0.280617 0.705084 -0.651238 250 231 195
0.725152 0.437711 4.09451 0.323874 0.657019 -0.680758 238 208 166
0.738319 0.436733 4.10015 -0.324724 0.735585 -0.594532 247 235 207
1.00884 0.450682 3.76308 0.702599 -0.131616 -0.699308 181 178 183
1.01778 0.450515 3.77332 0.635846 0.238015 -0.734199 128 120 141
1.05264 0.45439 3.71617 -0.677606 0.014606 -0.73528 17 23 100
1.05895 0.452077 3.69461 -0.702265 -0.349327 -0.620318 50 74 192
1.06711 0.453832 3.69346 -0.382417 -0.0660349 -0.921627 90 136 236
1.08786 0.457145 3.6787 -0.521443 -0.0515727 -0.851726 29 58 191
1.09084 0.456222 3.66493 -0.732362 -0.00465016 -0.680899 37 62 188
1.09812 0.456448 3.65425 -0.674768 -0.0251235 -0.737602 30 51 161
1.1019 0.453144 3.65499 -0.67293 -0.0617157 -0.737127 37 57 165
1.10579 0.456901 3.65173 -0.672264 0.136368 -0.727644 20 38 138
1.14649 0.462262 3.64422 -0.574515 0.516997 -0.634544 11 23 109
1.14648 0.462155 3.64183 -0.542282 0.61549 -0.571929 12 24 110
1.15278 0.461775 3.63593 -0.556249 0.603803 -0.570971 22 35 118
1.16922 0.463952 3.65225 -0.0303813 0.762291 -0.64652 19 33 117
1.17702 0.467059 3.65634 -0.107897 0.698244 -0.707682 22 38 128
1.18752 0.469148 3.65806 -0.328049 0.734748 -0.593741 29 44 135
1.19556 0.468656 3.65973 -0.285713 0.761796 -0.581408 29 44 131
1.19711 0.4689 3.65547 -0.076028 0.782246 -0.618314 34 51 140
1.20461 0.467794 3.64378 -0.323113 0.678885 -0.659328 17 32 127
1.20606 0.472382 3.65198 -0.0452594 0.779477 -0.624794 55 75 168
1.21097 0.472204 3.64731 -0.379052 0.519658 -0.765686 67 84 173
1.25367 0.486329 3.73503 -0.796553 0.142419 -0.587554 210 186 161
1.27121 0.485929 3.7291 0.470105 0.0998085 -0.876949 204 172 142
1.27582 0.489536 3.73957 0.633105 -0.29228 -0.716763 213 184 155
1.2781 0.486521 3.7436 0.652845 -0.107625 -0.749807 183 150 120
1.28351 0.490227 3.74478 -0.73044 0.104922 -0.67487 215 185 155
1.29102 0.490532 3.74475 -0.756097 0.110811 -0.64501 213 183 155
1.29733 0.491332 3.73352 -0.546673 -0.311745 -0.777151 228 203 174
1.29782 0.490138 3.7328 -0.27368 -0.195939 -0.941651 232 211 182
1.30309 0.490156 3.73144 -0.306151 -0.110611 -0.945535 250 241 214
1.31307 0.495685 3.73473 0.30706 -0.442479 -0.842571 205 173 143
1.30842 0.490127 3.73068 -0.0383086 -0.0920652 -0.995016 223 199 170
1.31775 0.495765 3.73984 -0.0422225 -0.336521 -0.940729 199 168 138
1.32917 0.496968 3.7375 -0.0955445 -0.843028 -0.529316 207 178 150
1.33634 0.49595 3.74396 -0.10503 -0.850506 -0.515372 203 176 148
1.34375 0.497307 3.73279 -0.37584 -0.752571 -0.540722 229 207 179
1.3437 0.497648 3.7315 -0.234266 -0.815833 -0.528712 229 207 179
1.3519 0.500551 3.73119 0.340268 -0.409283 -0.846584 228 205 177
1.36658 0.500671 3.74046 -0.333006 -0.697958 -0.634004 162 131 103
1.36581 0.502591 3.73855 0.234437 0.198037 -0.951746 160 129 101
1.37664 0.500843 3.74096 -0.177892 -0.704674 -0.686869 175 145 117
1.38251 0.502566 3.74225 0.505406 -0.56226 -0.654544 144 112 85
1.39038 0.507808 3.74899 0.102313 -0.337855 -0.935621 140 109 82
1.40518 0.507165 3.75782 0.384592 -0.243409 -0.890416 181 153 129
1.4421 0.514521 3.77969 0.623451 -0.0630558 -0.779316 157 138 118
1.46583 0.519259 3.76298 0.277218 -0.0608718 -0.958877 108 136 220
1.47259 0.519596 3.76698 0.547413 -0.172396 -0.818913 58 96 223
1.47631 0.520684 3.76476 0.294292 -0.26048 -0.919534 37 71 199
-0.901797 0.329518 5.63387 0.926817 -0.135416 -0.350247 45 47 45
-0.892791 0.330153 5.65255 0.809934 -0.195464 -0.552993 59 61 59
-0.85016 0.337378 5.63839 0.911753 0.098077 -0.398857 75 81 80
-0.706499 0.360166 5.65735 0.692047 -0.264039 -0.671829 141 163 177
-0.699105 0.364682 5.66536 0.854766 -0.361661 -0.372259 154 178 198
0.332529 0.375968 4.01028 -0.0535675 -0.560219 -0.826611 242 236 216
0.33996 0.375826 4.01399 -0.0232538 -0.381174 -0.924211 223 202 174
0.338277 0.377434 4.01424 -0.208774 -0.559985 -0.801767 238 222 199
0.346518 0.377241 4.01609 0.0417481 -0.226709 -0.973067 219 193 160
0.345997 0.375865 4.01552 0.292462 0.103132 -0.9507 218 189 155
0.348386 0.377951 4.01545 -0.199102 -0.393244 -0.897618 221 195 164
0.393358 0.380925 3.99591 0.0498075 -0.816897 -0.574629 237 211 181
0.399743 0.382166 3.99627 -0.0845554 -0.226816 -0.97026 240 213 181
0.405461 0.382216 3.99782 0.324089 0.225971 -0.918642 239 213 181
0.408334 0.387255 3.9963 -0.138342 -0.550509 -0.823287 203 169 137
0.414418 0.387154 3.99875 -0.0990529 -0.442459 -0.891302 203 170 138
0.421205 0.387574 3.99946 0.479015 -0.355243 -0.802713 220 192 161
0.420834 0.387157 3.99815 0.297642 -0.183079 -0.936959 218 189 158
0.42718 0.387516 4.00064 0.480807 -0.414278 -0.772786 225 195 165
0.449181 0.391951 3.99149 0.435393 -0.684623 -0.584572 241 222 193
0.456354 0.392599 3.99338 0.379716 -0.796141 -0.471142 233 204 174
0.484103 0.398218 4.00728 0.279307 -0.56784 -0.774303 188 149 118
0.501632 0.40064 4.00767 0.642613 -0.388795 -0.660217 159 115 84
0.508289 0.400469 4.01465 0.707227 -0.218761 -0.67229 170 126 98
0.512681 0.400998 4.00868 0.690635 -0.328618 -0.644231 172 128 99
0.51752 0.404141 4.01206 0.789633 -0.149066 -0.595197 165 121 92
0.517513 0.404135 4.012 0.790253 -0.143087 -0.595841 165 121 92
0.517513 0.404135 4.012 0.790253 -0.143087 -0.595841 165 121 92
0.527579 0.403606 4.03332 0.789728 -0.135644 -0.598272 165 122 93
0.535 0.409783 4.03652 0.531464 -0.629906 -0.566361 143 99 70
0.540212 0.40965 4.04062 0.540221 -0.522198 -0.659902 143 101 72
0.540206 0.409324 4.04041 0.638066 -0.471567 -0.608684 144 101 72
0.546329 0.409178 4.04457 0.57137 -0.513429 -0.640255 212 173 144
0.541357 0.40906 4.04121 0.649821 -0.5083 -0.565123 153 111 81
0.557625 0.414011 4.0574 0.641016 -0.544169 -0.541275 171 130 100
0.562641 0.4121 4.06434 0.419397 -0.453509 -0.786407 202 159 130
0.571763 0.413857 4.06822 0.170463 -0.811568 -0.558838 208 167 137
0.57964 0.416789 4.06611 0.17715 -0.819131 -0.545565 186 145 114
0.577569 0.414517 4.06983 0.00758134 -0.733535 -0.679609 201 162 132
0.585669 0.417494 4.07485 0.592487 -0.404718 -0.696536 175 134 104
0.591953 0.419395 4.07229 0.694177 -0.255281 -0.673015 176 136 107
0.596492 0.419273 4.07824 0.066407 -0.211401 -0.975141 189 151 122
0.602092 0.41919 4.0795 -0.33122 -0.357365 -0.87326 219 184 155
0.613335 0.420725 4.07897 -0.489733 0.0148522 -0.871746 141 96 68
0.633357 0.432969 4.1345 0.658512 -0.483905 -0.576366 151 107 79
0.634094 0.433323 4.13576 0.626512 -0.537484 -0.564441 150 105 77
0.665014 0.437582 4.15233 -0.319912 -0.390297 -0.863322 240 227 198
0.711637 0.439249 4.08037 -0.300198 0.762327 -0.573358 249 233 205
0.718595 0.440459 4.09035 0.403968 0.636734 -0.656794 243 220 183
0.724732 0.440795 4.09753 -0.26218 0.573437 -0.776164 239 209 167
0.731613 0.442354 4.10029 -0.299731 0.577228 -0.759585 253 248 219
1.00631 0.457322 3.76477 0.703489 -0.123447 -0.699903 184 180 180
1.01331 0.454236 3.77096 0.50174 -0.0566576 -0.863161 152 144 159
1.04051 0.457116 3.74847 -0.663069 0.316904 -0.678167 28 31 90
1.04909 0.457205 3.71646 -0.717484 -0.290696 -0.633019 24 28 87
1.05417 0.454782 3.70878 -0.691974 -0.200045 -0.693653 23 30 111
1.0641 0.460351 3.70315 -0.514498 -0.30583 -0.801099 12 22 120
1.06963 0.459196 3.69834 -0.464118 -0.173503 -0.868614 75 112 232
1.08715 0.460676 3.68045 -0.767296 0.0163094 -0.641086 25 55 191
1.10146 0.460043 3.65564 -0.670144 0.0296692 -0.741638 16 35 138
1.1096 0.459312 3.65568 -0.654141 0.218585 -0.7241 23 41 137
1.12758 0.464817 3.65616 -0.713756 0.36251 -0.599283 34 49 140
1.13389 0.465186 3.65445 0.246009 0.672024 -0.698472 19 34 126
1.13997 0.466414 3.64744 0.239548 0.671925 -0.700809 22 36 125
1.1467 0.46813 3.65065 -0.175184 0.793775 -0.582435 14 28 118
1.15359 0.469937 3.65544 0.223312 0.682614 -0.695824 30 49 144
1.15532 0.466434 3.64428 -0.342081 0.593251 -0.728721 17 35 121
1.16379 0.467765 3.66025 0.21428 0.688141 -0.693214 18 34 121
1.17328 0.471347 3.67056 0.0472439 0.720376 -0.691973 25 43 139
1.19612 0.474744 3.67491 -0.25154 0.791818 -0.556553 17 37 145
1.19552 0.474313 3.66754 -0.152181 0.793591 -0.589113 17 36 144
1.23388 0.486237 3.75205 -0.45128 0.578462 -0.679506 39 44 106
1.23965 0.491212 3.75512 -0.467513 0.429274 -0.772758 189 172 158
1.24518 0.491191 3.75478 -0.625728 0.518048 -0.583173 230 212 189
1.24714 0.491087 3.75281 -0.428058 0.572042 -0.699667 229 212 188
1.25025 0.491139 3.74089 -0.800804 0.115714 -0.587642 217 194 168
1.29132 0.497609 3.73695 -0.724738 0.38569 -0.570963 246 238 214
1.29428 0.496923 3.73456 -0.53405 -0.314763 -0.784675 242 229 203
1.29973 0.496355 3.73246 -0.210022 0.0235888 -0.977412 219 194 167
1.30696 0.495518 3.73082 -0.373612 0.152414 -0.914978 234 210 182
1.31679 0.501172 3.73349 -0.0979762 -0.69986 -0.707529 205 173 143
1.32816 0.498796 3.74111 0.245373 -0.790779 -0.560768 216 188 160
1.32964 0.502075 3.72748 -0.604081 -0.461848 -0.649448 220 196 167
1.33571 0.500574 3.73018 -0.0450674 -0.85671 -0.513825 241 220 191
1.34391 0.502673 3.7251 -0.104267 -0.749364 -0.653898 227 203 175
1.37169 0.505655 3.73448 0.242134 -0.613066 -0.752011 171 142 115
1.37658 0.50593 3.73652 -0.517136 -0.463384 -0.719615 213 187 160
1.38408 0.508295 3.73913 0.533224 -0.514781 -0.671322 158 128 102
1.38969 0.512415 3.74498 0.58254 0.145512 -0.799671 149 118 92
1.40856 0.513097 3.76388 0.440439 0.0543374 -0.896136 173 148 125
1.40313 0.512752 3.7582 0.0947946 0.104537 -0.989993 183 154 130
1.42392 0.519834 3.76284 0.386522 -0.533632 -0.752222 184 163 142
1.43649 0.518917 3.77594 0.619333 0.00740844 -0.785094 139 120 98
1.44476 0.523228 3.77875 0.560476 0.228772 -0.795946 144 125 105
1.47783 0.525 3.76214 0.0806016 -0.222707 -0.971548 28 59 186
-0.901161 0.336321 5.65548 0.918582 0.131643 -0.372661 62 64 62
-0.859976 0.344058 5.64278 0.742241 0.339418 -0.577818 72 77 76
-0.710822 0.366755 5.65288 0.703088 -0.206588 -0.680432 138 159 173
-0.711058 0.368773 5.65208 0.733458 -0.227846 -0.64041 139 161 175
-0.705152 0.368209 5.65251 0.783543 -0.220002 -0.581085 147 170 188
0.279057 0.376849 4.05856 -0.533949 -0.45481 -0.712774 230 220 195
0.338745 0.382531 4.01715 -0.350796 -0.66619 -0.658128 253 246 224
0.347312 0.384014 4.01637 -0.146474 -0.790745 -0.594364 236 216 187
0.343973 0.379796 4.01543 -0.462526 -0.56163 -0.686033 229 205 176
0.384933 0.386166 3.98693 0.674939 -0.0979256 -0.731346 217 183 153
0.383282 0.383492 3.99229 -0.42413 -0.611282 -0.668167 225 195 164
0.402635 0.387195 3.99465 0.653773 -0.332339 -0.679803 209 174 142
0.417176 0.392222 3.99762 0.367468 0.0873206 -0.925928 227 201 170
0.418266 0.392207 3.99663 -0.0871657 -0.239543 -0.966965 230 206 175
0.42535 0.392927 3.99731 0.103176 0.0938002 -0.99023 246 228 199
0.431841 0.392789 3.99376 -0.551073 -0.461558 -0.695185 243 224 195
0.452363 0.397363 3.99246 0.468919 -0.162958 -0.868078 234 204 174
0.457945 0.399692 3.99533 0.643361 -0.162958 -0.748018 214 182 150
0.470027 0.398116 4.00031 -0.417553 -0.629176 -0.655582 216 182 152
0.478328 0.400138 4.00461 -0.423739 -0.624899 -0.655703 220 184 154
0.484551 0.404054 4.00639 -0.0425826 -0.289291 -0.956294 226 197 167
0.489947 0.402052 4.00636 0.343822 -0.566782 -0.748695 195 157 126
0.49918 0.402911 4.00568 -0.381442 -0.665528 -0.641541 156 113 81
0.507395 0.406435 4.00079 0.751483 -0.335239 -0.568233 156 112 84
0.512663 0.408164 3.99626 0.76042 -0.303964 -0.573906 154 111 83
0.523922 0.408658 4.02755 0.789707 -0.135647 -0.5983 156 113 84
0.528045 0.411333 4.02584 0.756407 -0.242265 -0.607582 155 112 83
0.546559 0.416024 4.03853 0.620177 -0.567942 -0.54113 190 148 120
0.546713 0.415683 4.03919 0.630796 -0.557665 -0.539543 191 150 121
