ply
format ascii 1.0
element vertex 745
property float x
property float y
property float z
property float nx
property float ny
property float nz
property uchar diffuse_red
property uchar diffuse_green
property uchar diffuse_blue
end_header
0.432672 1.37443 3.5069 -0.473693 -0.737168 -0.48187 91 85 79
0.438401 1.37078 3.49816 -0.627232 -0.440887 -0.642027 91 86 78
0.467284 1.39157 3.53993 -0.620846 -0.385178 -0.68278 98 91 83
0.470147 1.38491 3.52267 -0.637974 -0.425638 -0.641734 99 91 83
0.790342 1.41956 3.4757 -0.469096 -0.794585 -0.385466 116 103 89
0.794734 1.42124 3.47813 -0.376788 -0.860871 -0.341953 115 102 88
0.801291 1.42035 3.47352 -0.396167 -0.8525 -0.341022 117 104 89
0.808103 1.41557 3.45905 -0.412101 -0.841787 -0.348665 118 105 90
0.814937 1.41359 3.45195 -0.496835 -0.770645 -0.399075 119 105 90
0.850749 1.46568 3.57012 -0.56816 -0.700355 -0.432084 126 110 91
0.868854 1.46677 3.56959 -0.28928 -0.605096 -0.741738 142 126 104
0.872583 1.46886 3.57251 -0.448321 -0.356017 -0.819915 142 126 104
0.872218 1.46979 3.57153 -0.561413 -0.462718 -0.686082 140 124 102
0.880043 1.47199 3.57428 -0.188821 0.455712 -0.86987 144 128 106
0.891645 1.45832 3.52967 -0.733996 -0.2844 -0.616739 143 128 105
0.9092 1.45635 3.5136 -0.699032 -0.153038 -0.698523 146 131 109
0.914524 1.45313 3.50716 -0.706168 -0.418605 -0.571049 151 134 113
0.923872 1.45626 3.50745 -0.620621 -0.489525 -0.612532 152 136 113
0.929591 1.45307 3.50702 -0.450883 0.160305 -0.87807 141 126 104
0.938311 1.456 3.50148 -0.235865 -0.538288 -0.809082 142 127 104
0.942451 1.45354 3.50262 0.18894 -0.187268 -0.963967 109 94 74
0.949669 1.45618 3.50054 -0.404831 -0.262406 -0.875931 107 94 74
0.954504 1.45613 3.49819 -0.356055 -0.384684 -0.851612 104 90 72
0.959213 1.45623 3.49644 -0.367064 -0.407003 -0.836428 104 92 73
0.962603 1.45857 3.50053 -0.0916604 -0.549278 -0.830598 104 92 72
0.964986 1.45884 3.50021 -0.367035 -0.749573 -0.550841 105 93 73
0.971385 1.45797 3.4945 -0.573716 -0.672199 -0.467973 106 94 74
2.03113 1.66146 3.57452 -0.661504 0.361495 -0.657065 129 138 136
2.03612 1.66246 3.56968 -0.78599 -0.125931 -0.605278 130 140 138
2.03728 1.66245 3.56806 -0.672674 -0.016412 -0.739757 130 140 138
2.04709 1.66177 3.56898 -0.859188 0.0803154 -0.505317 148 160 163
2.04079 1.6614 3.5637 -0.779481 -0.276416 -0.562143 136 147 146
2.04682 1.65813 3.55324 -0.889462 -0.228925 -0.395538 142 154 157
2.13363 1.60317 3.37041 -0.884449 -0.375028 -0.277677 111 115 116
2.12461 1.59709 3.35624 -0.814729 -0.539577 -0.212304 110 114 115
2.18826 1.63408 3.43179 -0.0368961 -0.989214 -0.141757 124 127 123
2.19587 1.62798 3.41786 -0.0194847 -0.987862 -0.154105 98 98 91
2.18865 1.62035 3.38811 -0.0117836 -0.98703 -0.1601 89 87 79
2.19428 1.61781 3.38032 -0.23032 -0.968923 -0.0902327 80 78 70
2.2071 1.62516 3.39508 -0.104288 -0.988024 -0.113726 78 75 67
0.297352 1.41114 3.65085 -0.618888 -0.372986 -0.691273 77 74 70
0.33221 1.40156 3.61652 -0.297815 -0.878396 -0.373799 80 77 72
0.336807 1.39797 3.60719 -0.318878 -0.86539 -0.386545 80 76 72
0.343684 1.39813 3.60081 -0.0886272 -0.827556 -0.554343 80 77 72
0.353104 1.3866 3.56627 -0.236552 -0.910756 -0.338476 81 77 72
0.35937 1.3834 3.55381 -0.243465 -0.907665 -0.341861 82 77 71
0.367705 1.38812 3.56169 -0.200336 -0.848604 -0.48963 82 78 72
0.371639 1.39061 3.56314 -0.393982 -0.810981 -0.432537 83 79 74
0.377915 1.3902 3.55864 -0.396361 -0.810733 -0.430825 85 81 75
0.381673 1.39208 3.56065 -0.424649 -0.785668 -0.449887 84 79 73
0.398966 1.37848 3.52885 -0.542651 -0.637348 -0.547099 87 82 76
0.40591 1.37505 3.51312 -0.568119 -0.589944 -0.573765 88 82 76
0.411263 1.37502 3.50747 -0.571119 -0.58505 -0.575795 87 82 75
0.418108 1.37163 3.49272 -0.568222 -0.58946 -0.57416 88 84 77
0.465995 1.39093 3.52249 -0.632719 -0.446771 -0.632504 95 87 80
0.471451 1.39021 3.51755 -0.634454 -0.439755 -0.635676 96 89 81
0.476717 1.38924 3.51363 -0.64497 -0.393781 -0.654944 97 90 82
0.482239 1.38822 3.50946 -0.648583 -0.378852 -0.66016 98 90 82
0.788792 1.42457 3.47404 -0.669941 -0.500442 -0.548395 114 103 89
0.795306 1.42337 3.46871 -0.659292 -0.52428 -0.538947 113 101 89
0.80183 1.41951 3.45626 -0.42137 -0.834853 -0.354215 112 101 87
0.80796 1.4184 3.45153 -0.418752 -0.837291 -0.351555 115 103 88
0.809156 1.4181 3.44976 -0.481922 -0.785755 -0.387737 116 104 88
0.813615 1.41474 3.43958 -0.507521 -0.761392 -0.403367 116 104 89
0.819531 1.41714 3.4391 -0.158228 -0.958317 -0.23789 117 102 88
0.851655 1.46989 3.56404 -0.714423 -0.392137 -0.579507 121 106 89
0.85469 1.4593 3.53849 -0.251467 -0.931773 -0.261848 121 107 89
0.85469 1.4593 3.53849 -0.251467 -0.931773 -0.261848 121 107 89
0.868736 1.47116 3.56663 -0.471829 -0.695087 -0.542431 130 115 94
0.917586 1.45833 3.50878 -0.723659 -0.239371 -0.647316 146 130 109
0.91927 1.456 3.50644 -0.660218 -0.408972 -0.629964 149 133 112
0.92474 1.45837 3.50419 -0.51303 -0.530007 -0.675199 149 133 110
0.928277 1.45669 3.50442 -0.561337 -0.507881 -0.65342 154 138 115
0.933773 1.45697 3.50225 -0.526751 -0.50482 -0.683879 152 137 114
0.938126 1.45763 3.49949 -0.335174 -0.513688 -0.789799 151 136 113
0.939311 1.45856 3.49429 -0.365896 -0.654685 -0.661443 151 136 112
0.952151 1.45962 3.49574 -0.100484 -0.907266 -0.408378 130 116 94
0.958344 1.45993 3.49095 -0.154573 -0.917164 -0.367311 121 108 88
0.961552 1.45914 3.49059 -0.346325 -0.794238 -0.499244 109 95 76
0.966635 1.45939 3.48733 -0.507344 -0.772686 -0.381522 104 90 70
0.973862 1.45881 3.49023 -0.63147 -0.551222 -0.545344 106 93 73
0.977245 1.4586 3.48576 -0.667258 -0.414378 -0.618916 106 93 74
0.984005 1.46066 3.48133 -0.671445 -0.413515 -0.614953 105 92 73
0.988337 1.46135 3.48294 -0.721632 -0.340174 -0.602934 105 92 73
2.0315 1.66672 3.57313 -0.568151 -0.405737 -0.715948 112 119 114
2.03162 1.66743 3.5715 -0.295384 -0.42959 -0.853347 108 114 110
2.03515 1.66874 3.57425 -0.657937 0.378871 -0.650827 111 118 115
2.00315 1.63741 3.50734 -0.879484 -0.083679 -0.468515 98 104 100
2.00526 1.63914 3.5064 -0.884181 -0.162097 -0.438119 98 102 99
2.01853 1.64145 3.51022 -0.417746 -0.900443 -0.121208 115 122 119
2.12929 1.60419 3.36986 -0.71883 -0.59309 -0.362668 109 114 114
2.18719 1.64075 3.43336 -0.122059 -0.978101 -0.168585 117 119 113
2.18755 1.63325 3.41717 -0.318887 -0.942172 -0.10307 106 106 100
2.18928 1.6213 3.38879 0.0961108 -0.966279 -0.238887 88 86 78
2.19702 1.62312 3.38461 0.097753 -0.965358 -0.241925 79 76 67
2.18211 1.61181 3.35728 -0.227681 -0.96967 -0.0888908 84 80 71
2.19295 1.61944 3.37276 -0.225163 -0.970247 -0.0890094 78 75 66
2.19602 1.61243 3.3548 -0.0126588 -0.986022 -0.166131 76 74 65
2.19629 1.61224 3.35507 -0.489996 -0.865986 -0.0998595 76 74 65
2.19246 1.60957 3.34642 0.306828 -0.845197 -0.437605 74 72 63
2.19419 1.61174 3.35121 -0.105372 -0.955938 -0.274005 75 73 64
2.19539 1.61111 3.35257 -0.693769 -0.706603 -0.139276 76 74 65
0.294551 1.41055 3.64732 -0.628153 -0.196389 -0.752898 75 72 68
0.312271 1.40388 3.61685 -0.108206 -0.955662 -0.273863 77 74 70
0.334626 1.39985 3.59535 -0.33117 -0.855674 -0.397679 78 75 70
0.342681 1.39627 3.58694 -0.340181 -0.83892 -0.424841 78 75 70
0.352312 1.38666 3.55076 -0.237481 -0.908874 -0.342856 78 75 69
0.352501 1.38708 3.55205 -0.236967 -0.9108 -0.338068 78 75 69
0.367684 1.39162 3.55573 -0.375973 -0.826363 -0.419248 82 78 73
0.390771 1.38564 3.53507 -0.540272 -0.640334 -0.545966 84 79 74
0.400004 1.38024 3.51383 -0.543347 -0.636369 -0.547548 85 79 75
0.405165 1.38056 3.50849 -0.546029 -0.630313 -0.551868 85 79 74
0.784998 1.4319 3.48925 -0.650094 -0.550215 -0.524062 113 102 88
0.803304 1.42257 3.44753 -0.482955 -0.782699 -0.392602 112 101 87
0.809119 1.42142 3.44274 -0.488894 -0.779321 -0.391971 113 101 87
0.819312 1.41879 3.42997 -0.50419 -0.764287 -0.402066 114 101 88
0.909402 1.46959 3.53359 -0.450034 -0.170003 -0.87668 143 127 105
0.918115 1.46636 3.51436 -0.658246 -0.229519 -0.716962 142 126 104
0.922935 1.46475 3.51078 -0.662727 -0.16879 -0.729591 144 128 106
0.928764 1.46134 3.50052 -0.563119 0.269941 -0.781044 145 129 107
0.934248 1.46155 3.49855 -0.707449 -0.442947 -0.550739 147 131 108
0.947389 1.45968 3.48797 -0.207158 -0.924963 -0.318637 150 136 113
0.952903 1.46114 3.48618 -0.414106 -0.828101 -0.377842 150 136 113
0.961796 1.46211 3.48409 -0.373689 -0.735218 -0.565519 142 126 105
0.966781 1.46218 3.47992 -0.439787 -0.643334 -0.626665 137 121 100
0.970636 1.46033 3.48369 -0.473513 -0.630354 -0.615175 105 92 72
0.974815 1.46133 3.48159 -0.377823 -0.435524 -0.817049 104 92 72
0.981837 1.46336 3.47709 -0.257139 -0.402587 -0.878523 103 90 73
0.981245 1.4633 3.47647 -0.232993 -0.414914 -0.879523 105 91 73
0.986769 1.46308 3.47497 -0.558575 -0.383295 -0.73558 102 88 71
1.99952 1.6575 3.54721 -0.525108 -0.675455 -0.517709 80 83 77
1.99401 1.64422 3.51294 -0.877346 -0.357158 -0.320471 81 84 78
1.99797 1.64178 3.50729 -0.605628 -0.710863 -0.357615 86 90 84
1.99903 1.6418 3.50402 -0.51632 -0.681076 -0.519182 86 89 84
2.00293 1.64203 3.50359 -0.67584 -0.566731 -0.471228 90 93 88
2.00741 1.6417 3.49972 -0.333444 -0.934913 -0.121464 94 98 94
2.04829 1.66348 3.54736 -0.896319 -0.26463 -0.355785 125 135 133
2.04846 1.66272 3.54769 -0.887691 -0.243857 -0.390563 128 138 136
2.13931 1.6238 3.39994 -0.918262 -0.173785 -0.3558 104 107 107
2.12891 1.60814 3.36493 -0.879937 -0.394426 -0.264839 105 109 108
2.18045 1.64365 3.43182 -0.105596 -0.989573 -0.0979531 117 119 114
2.17967 1.63608 3.41241 -0.278189 -0.955955 -0.0935969 113 114 108
2.18417 1.63171 3.40272 -0.24424 -0.965459 -0.0907482 97 96 89
2.18403 1.61863 3.36135 -0.226076 -0.969857 -0.0909233 78 75 65
2.18403 1.61863 3.36135 -0.226076 -0.969857 -0.0909233 78 75 65
2.19633 1.61435 3.34647 -0.00673101 -0.986622 -0.162885 75 72 62
0.328472 1.40649 3.59954 -0.344661 -0.845066 -0.408745 77 73 70
0.3531 1.39248 3.55033 -0.238459 -0.91099 -0.336503 77 74 69
0.410386 1.38081 3.50302 -0.565795 -0.597815 -0.567885 84 80 75
0.41261 1.37718 3.49361 -0.546592 -0.630885 -0.550655 85 80 75
0.475602 1.39344 3.50739 -0.645293 -0.339102 -0.684549 92 85 78
0.47879 1.39453 3.50919 -0.648095 -0.358457 -0.671924 93 85 79
0.481957 1.39572 3.51096 -0.653344 -0.348882 -0.67188 93 86 80
0.485339 1.39662 3.51215 -0.626967 -0.478607 -0.614693 94 87 80
0.502018 1.39401 3.49885 -0.592484 -0.572756 -0.566492 97 90 83
0.776432 1.43513 3.48783 -0.587198 -0.660972 -0.467241 112 101 88
0.781338 1.43427 3.48029 -0.664708 -0.480339 -0.572222 111 100 87
0.813445 1.41986 3.422 -0.576707 -0.681338 -0.450764 112 100 88
0.893478 1.47378 3.5385 -0.73586 -0.247929 -0.630113 127 112 92
0.899141 1.4736 3.53513 -0.658213 -0.560339 -0.502768 131 116 94
0.903721 1.47443 3.53366 -0.64935 -0.536423 -0.539068 133 118 96
0.903484 1.4737 3.53175 -0.717754 -0.412423 -0.561015 132 117 95
0.90753 1.47473 3.52928 -0.734951 -0.312623 -0.601759 133 117 96
0.911964 1.47535 3.52504 -0.660432 -0.553291 -0.50764 132 117 96
0.925952 1.47252 3.51099 -0.702869 -0.475327 -0.529188 140 123 102
0.932651 1.46743 3.49817 -0.61604 -0.25829 -0.744165 140 125 102
0.935946 1.46875 3.50147 -0.650953 -0.121507 -0.749331 141 126 103
0.940774 1.46659 3.49672 -0.719827 -0.0513689 -0.69225 143 129 107
0.945295 1.46536 3.4912 -0.740762 -0.221514 -0.634195 143 129 107
0.951997 1.46574 3.48349 -0.682495 -0.489413 -0.54284 145 130 108
0.958499 1.46283 3.47593 -0.415551 -0.748724 -0.516459 148 132 111
0.963239 1.46331 3.47282 -0.455719 -0.738351 -0.497149 148 133 111
0.971039 1.46316 3.47763 0.0905957 -0.896607 -0.43346 133 119 98
0.971245 1.46344 3.47664 -0.0684363 -0.780719 -0.621123 137 123 102
0.976721 1.46502 3.47482 0.0217844 -0.81933 -0.572908 131 117 97
0.976142 1.46507 3.47446 0.0219913 -0.809274 -0.58702 135 121 100
0.981881 1.46664 3.47209 0.377918 -0.876673 -0.297696 131 117 97
0.98125 1.4667 3.47176 -0.00166468 -0.687171 -0.726494 134 120 100
0.988401 1.46759 3.47609 0.355508 -0.879647 -0.315968 106 93 74
0.986164 1.46416 3.47198 -0.489971 -0.445818 -0.749116 103 90 72
0.995498 1.46704 3.47669 -0.546653 -0.683303 -0.484012 102 88 71
1.00051 1.46601 3.46723 -0.711522 -0.468794 -0.52342 101 88 72
1.00385 1.46883 3.46894 -0.595743 -0.635995 -0.49051 100 88 70
1.99324 1.6582 3.54045 -0.793981 -0.390997 -0.465527 74 76 70
2.00607 1.64459 3.50466 -0.576307 -0.724155 -0.378775 88 91 86
2.00856 1.64383 3.49262 -0.708749 -0.671819 -0.215255 86 89 84
2.13067 1.64684 3.44459 -0.811563 -0.545839 -0.208386 109 115 113
2.13747 1.62537 3.38826 -0.875332 -0.396533 -0.276688 104 107 104
2.12151 1.60668 3.34687 -0.777798 -0.598669 -0.19138 103 106 105
2.1739 1.63617 3.40313 -0.0630743 -0.990731 -0.120309 110 111 105
2.17639 1.63426 3.39844 -0.23883 -0.967021 -0.0884861 102 101 94
2.18081 1.63007 3.38813 -0.240628 -0.966536 -0.0889184 93 92 84
2.17854 1.62776 3.38343 -0.233018 -0.968475 -0.0880846 94 92 84
2.17442 1.61435 3.35157 -0.396939 -0.913123 -0.0929776 86 84 75
2.19411 1.61535 3.34383 0.267081 -0.877409 -0.398524 74 71 62
0.365182 1.39756 3.55492 -0.376783 -0.826425 -0.418396 78 74 70
0.371625 1.39708 3.55025 -0.383628 -0.821248 -0.422353 79 77 71
0.399515 1.38538 3.50818 -0.543345 -0.636433 -0.547475 82 78 74
0.40477 1.38561 3.50258 -0.544285 -0.636176 -0.54684 82 78 73
0.407187 1.38386 3.49873 -0.50773 -0.691419 -0.513955 83 79 74
0.412136 1.38231 3.48806 -0.538571 -0.646993 -0.539761 83 79 75
0.471158 1.39869 3.50734 -0.57358 -0.486061 -0.659357 90 84 78
0.480812 1.39969 3.50492 -0.650508 -0.308645 -0.693958 91 85 79
0.483763 1.40085 3.50748 -0.646402 -0.39131 -0.655012 93 86 80
0.486781 1.40234 3.50949 -0.633345 -0.408825 -0.657067 93 86 80
0.494851 1.39886 3.4974 -0.647086 -0.401353 -0.648225 93 87 80
0.500436 1.39777 3.49215 -0.645191 -0.414809 -0.641608 92 86 79
0.508188 1.3945 3.48073 -0.589506 -0.580917 -0.561265 94 86 80
0.580478 1.3777 3.40786 -0.562871 -0.64312 -0.519205 101 92 84
0.58499 1.37527 3.39436 -0.653658 -0.416337 -0.631977 100 92 84
0.592079 1.37256 3.38432 -0.61999 -0.531554 -0.577115 101 93 85
0.599467 1.36961 3.37231 -0.65615 -0.414502 -0.630599 101 94 85
0.611948 1.36451 3.35603 -0.672543 -0.28134 -0.684495 102 93 85
0.615083 1.36507 3.35756 -0.672385 -0.282593 -0.684134 102 93 85
0.883836 1.48018 3.54267 -0.596427 -0.674464 -0.435171 116 103 88
0.89116 1.48071 3.53834 -0.733475 -0.266146 -0.625444 117 104 88
0.896119 1.47856 3.53352 -0.733273 -0.309019 -0.605655 118 104 86
0.900815 1.47591 3.52278 -0.685137 -0.515834 -0.514299 119 105 87
0.904059 1.47612 3.52314 -0.392235 -0.865611 -0.311238 122 107 89
0.919662 1.47444 3.51771 -0.692086 -0.387377 -0.609062 136 121 100
0.947304 1.47195 3.49275 -0.742106 -0.288404 -0.605063 139 125 104
0.949669 1.47125 3.48614 -0.636231 -0.626625 -0.450056 138 124 102
0.955048 1.47313 3.4884 -0.736099 -0.338076 -0.586399 142 126 105
0.965226 1.46976 3.47517 -0.740592 -0.327236 -0.58689 145 130 108
0.971483 1.46524 3.46971 -0.064964 -0.793394 -0.605232 147 132 111
0.971286 1.46694 3.47197 -0.655072 -0.494357 -0.571395 147 133 111
0.977126 1.46783 3.46791 -0.550113 -0.57585 -0.604792 147 132 112
0.986279 1.46779 3.46782 0.0303205 -0.481393 -0.87598 135 120 100
0.989102 1.46889 3.46529 0.308219 -0.839217 -0.448012 137 124 103
0.996156 1.46847 3.46632 -0.145142 -0.551383 -0.82153 108 95 76
1.00075 1.46978 3.46323 -0.355394 -0.546479 -0.758324 107 94 75
1.00789 1.46997 3.46053 -0.480688 -0.614645 -0.625421 98 87 68
1.00947 1.47248 3.46156 -0.0352612 -0.9231 -0.382941 102 90 71
1.01469 1.47263 3.46916 -0.274099 -0.846651 -0.456127 99 87 69
1.02149 1.47335 3.46175 -0.569299 -0.693752 -0.441143 99 87 70
1.99259 1.65476 3.51973 -0.898062 -0.233151 -0.372994 72 74 67
1.9938 1.64807 3.50519 -0.683152 -0.705108 -0.190068 75 77 71
1.9979 1.64636 3.49859 -0.675102 -0.709943 -0.200545 74 76 70
2.00106 1.64586 3.4975 -0.693281 -0.695654 -0.18822 79 81 75
2.00178 1.64133 3.48509 -0.708648 -0.67736 -0.197489 82 84 79
2.12575 1.63819 3.41296 -0.914617 -0.217774 -0.340661 99 102 100
2.12618 1.6329 3.40242 -0.795761 -0.544229 -0.265669 100 102 100
2.13116 1.62207 3.37779 -0.915124 -0.21112 -0.343478 102 105 102
2.16789 1.64052 3.39998 0.21607 -0.916486 -0.3367 108 109 103
2.17126 1.63709 3.39795 0.130316 -0.956692 -0.260303 107 107 100
2.16558 1.61341 3.33934 -0.266135 -0.959987 -0.0871606 89 86 77
2.17596 1.62013 3.35363 -0.612882 -0.781572 -0.116283 83 80 70
0.395084 1.3915 3.51104 -0.566125 -0.594075 -0.57147 79 77 72
0.396268 1.39138 3.50796 -0.389726 -0.818505 -0.422094 79 77 72
0.401325 1.38838 3.49659 -0.493448 -0.70953 -0.503067 78 75 71
0.407124 1.38806 3.49193 -0.264867 -0.901257 -0.342901 79 76 73
0.413306 1.38534 3.4814 -0.264464 -0.901422 -0.342778 79 76 72
0.51177 1.39758 3.46985 -0.645491 -0.416553 -0.640176 92 85 79
0.519632 1.39415 3.45799 -0.560555 -0.605369 -0.565072 93 86 80
0.576389 1.38031 3.40085 -0.592963 -0.59078 -0.547151 99 91 84
0.583718 1.37782 3.38907 -0.586326 -0.605101 -0.538585 99 91 84
0.868865 1.48121 3.54358 -0.552416 -0.723662 -0.413704 114 102 88
0.873177 1.48038 3.53761 -0.516248 -0.764254 -0.386528 114 102 87
0.877894 1.48038 3.53142 -0.541245 -0.740828 -0.397777 115 101 88
0.898551 1.47892 3.51688 -0.644054 -0.60139 -0.472784 114 102 86
0.904059 1.47886 3.51548 -0.635965 -0.611148 -0.471218 115 102 86
0.912314 1.47985 3.51858 -0.663722 -0.521925 -0.535787 119 104 87
0.917151 1.47882 3.51266 -0.646544 -0.536485 -0.542369 121 107 89
0.92163 1.47849 3.51093 -0.693043 -0.501823 -0.517558 123 108 89
0.928635 1.47584 3.50522 -0.612428 -0.575985 -0.541455 132 116 95
0.933475 1.47721 3.50152 -0.67155 -0.552984 -0.493183 131 116 94
0.938173 1.47876 3.50202 -0.507807 -0.763806 -0.398411 133 118 96
0.953561 1.47201 3.48393 -0.744569 -0.235606 -0.624585 140 124 103
0.961951 1.46919 3.47317 -0.745127 -0.265801 -0.611667 144 128 107
0.976653 1.47418 3.46864 -0.585854 0.199802 -0.785401 140 126 105
0.972802 1.47135 3.46931 -0.745588 -0.260571 -0.613353 143 129 108
0.981609 1.46968 3.46579 -0.41134 -0.558346 -0.720451 145 130 109
0.985867 1.47073 3.4628 -0.358463 -0.53188 -0.767208 144 129 108
0.988857 1.47243 3.46063 -0.404112 -0.649019 -0.644568 142 128 106
0.994921 1.47126 3.46133 -0.138409 -0.772378 -0.6199 140 126 105
0.999981 1.47208 3.45766 -0.536708 -0.285651 -0.793944 137 124 103
1.00469 1.47148 3.45486 -0.465278 -0.583323 -0.66577 128 114 95
1.01551 1.47382 3.45867 -0.05039 -0.890987 -0.451224 99 87 69
1.02095 1.47455 3.45279 -0.136418 -0.638144 -0.757735 99 87 69
1.02475 1.47393 3.44856 -0.538814 -0.400888 -0.740924 98 85 68
1.02938 1.47362 3.45143 -0.663296 -0.345566 -0.663794 98 86 69
1.03678 1.47382 3.44372 -0.672829 -0.488835 -0.555284 98 86 69
1.99003 1.65914 3.51239 -0.896796 -0.237019 -0.373603 67 67 61
1.99095 1.65632 3.51053 -0.694548 -0.693799 -0.190382 68 69 62
1.99702 1.65161 3.49519 -0.834848 -0.284138 -0.471481 72 73 66
1.99901 1.64016 3.46663 -0.898528 -0.119411 -0.42236 75 77 71
2.12111 1.63566 3.39497 -0.909423 -0.139194 -0.391886 97 100 95
2.11678 1.618 3.35934 -0.818837 -0.443193 -0.36481 99 102 99
2.11979 1.61516 3.35162 -0.786489 -0.586709 -0.192896 100 103 100
2.11307 1.60513 3.32913 -0.818227 -0.533833 -0.213368 100 103 100
2.17045 1.63882 3.38823 0.124605 -0.956064 -0.26536 93 92 84
2.16866 1.63025 3.36665 0.0389286 -0.970004 -0.23995 92 89 81
2.17271 1.6263 3.35807 -0.44277 -0.867872 -0.225284 86 82 73
2.16606 1.61582 3.33403 -0.415044 -0.905307 -0.090325 83 79 70
0.411411 1.38714 3.48185 -0.335552 -0.858325 -0.388179 78 75 72
0.494504 1.4061 3.4979 -0.612934 -0.52512 -0.590391 89 83 77
0.497524 1.40807 3.49906 -0.61973 -0.508567 -0.597741 90 85 78
0.504145 1.40075 3.48096 -0.645418 -0.414768 -0.641407 91 85 79
0.52418 1.3937 3.4536 -0.611795 -0.534624 -0.582996 91 85 78
0.588858 1.37749 3.38316 -0.596247 -0.403037 -0.694298 97 90 83
0.594899 1.37693 3.37427 -0.648218 -0.32659 -0.687861 96 89 81
0.599077 1.37652 3.37274 -0.6687 -0.303803 -0.678634 97 90 82
0.604667 1.37174 3.36106 -0.519582 -0.707886 -0.478468 97 90 82
0.612569 1.3705 3.35421 -0.665685 -0.370488 -0.647767 99 91 82
0.869054 1.4885 3.54397 -0.592098 -0.67881 -0.434324 111 99 86
0.871404 1.48474 3.53137 -0.511517 -0.769314 -0.38276 111 99 86
0.888728 1.48654 3.53555 -0.48492 -0.797002 -0.360056 114 101 87
0.893615 1.48609 3.53479 -0.605639 -0.663821 -0.438798 114 101 86
0.898651 1.48181 3.51905 -0.606678 -0.662806 -0.438896 114 101 85
0.90409 1.47969 3.51298 -0.611884 -0.655314 -0.442902 114 101 85
0.909664 1.48169 3.51381 -0.614151 -0.652839 -0.443418 115 102 86
0.912708 1.48479 3.51353 -0.664556 -0.567012 -0.486685 115 102 86
0.917248 1.48395 3.5084 -0.713637 -0.435742 -0.548499 115 102 86
0.917527 1.48396 3.50782 -0.656779 -0.58442 -0.476545 114 101 86
0.928792 1.47921 3.49227 -0.665178 -0.570137 -0.482165 116 102 85
0.944225 1.47789 3.49047 -0.479475 -0.762268 -0.4348 130 116 96
0.944582 1.47886 3.4931 -0.74171 -0.28914 -0.605198 131 117 96
0.949595 1.47732 3.4865 -0.479186 -0.763958 -0.432144 134 120 99
0.955179 1.47682 3.48273 -0.526979 -0.764072 -0.372138 138 122 102
0.957969 1.47978 3.48453 -0.72709 -0.339638 -0.596646 137 122 101
0.970378 1.47808 3.47404 -0.182223 -0.550969 -0.814388 136 122 101
0.973407 1.47875 3.4713 -0.739627 -0.29782 -0.603536 135 121 100
0.973043 1.47451 3.46668 -0.607183 -0.488674 -0.626519 137 123 102
0.981009 1.47506 3.4652 -0.512515 0.336287 -0.790088 139 125 104
0.986254 1.47434 3.45803 -0.475012 0.370914 -0.797989 139 125 104
0.995473 1.47378 3.45436 -0.586489 -0.613558 -0.52875 141 128 106
1.00062 1.47708 3.45328 -0.70358 -0.494154 -0.510673 140 126 105
1.00305 1.4746 3.45011 -0.476377 -0.567187 -0.671836 141 127 107
1.01635 1.47523 3.44877 0.106534 -0.808617 -0.57861 125 114 95
1.03007 1.47543 3.44124 -0.589344 -0.142059 -0.795295 98 86 69
1.03055 1.47729 3.44054 -0.270706 -0.87568 -0.399879 107 93 76
1.03504 1.47666 3.44865 -0.374587 -0.881828 -0.28647 96 84 67
1.03567 1.47524 3.43503 -0.545667 -0.324455 -0.772643 97 84 68
1.05068 1.47808 3.43469 -0.591093 -0.438921 -0.676726 95 84 68
1.05696 1.47922 3.4343 -0.540933 -0.648053 -0.536114 96 86 70
1.99434 1.65553 3.4894 -0.897171 -0.160563 -0.411465 67 68 62
1.99801 1.65284 3.48338 -0.899794 -0.206795 -0.384197 66 68 61
2.00078 1.6465 3.47002 -0.901898 -0.185707 -0.38999 72 73 68
2.12073 1.64317 3.40779 -0.914052 -0.218493 -0.341715 96 99 95
2.12131 1.6439 3.40841 -0.829691 -0.508897 -0.229427 95 98 94
2.10842 1.61696 3.34403 -0.844492 -0.482004 -0.233464 96 99 96
2.11123 1.62018 3.34841 -0.888285 -0.361964 -0.282724 94 99 95
2.11081 1.6156 3.33884 -0.785104 -0.585299 -0.202575 96 100 96
2.15931 1.62668 3.34443 -0.0948624 -0.990806 -0.0964609 90 87 78
2.15914 1.61943 3.33003 -0.412498 -0.906665 -0.0883427 85 82 73
2.16166 1.62208 3.32912 -0.155097 -0.983919 -0.0885953 81 78 69
2.16882 1.62046 3.32267 0.000676967 -0.985307 -0.170792 73 70 61
2.17495 1.624 3.32879 0.334256 -0.820807 -0.463193 72 70 61
0.462182 1.40932 3.5057 -0.536369 -0.666994 -0.517135 84 80 75
0.465968 1.4109 3.50364 -0.513069 -0.66697 -0.540288 85 81 75
0.504999 1.40175 3.46792 -0.641065 -0.422919 -0.640449 88 82 77
0.507847 1.4037 3.46978 -0.626702 -0.475104 -0.617674 89 83 78
0.515587 1.40063 3.45798 -0.622641 -0.502819 -0.599576 88 82 76
0.519287 1.39397 3.44424 -0.601671 -0.55657 -0.572906 88 83 77
0.52665 1.39146 3.43282 -0.604323 -0.552399 -0.57415 89 84 77
0.529239 1.39384 3.43479 -0.604369 -0.552598 -0.573911 89 83 77
0.535222 1.38443 3.4101 -0.533976 -0.680138 -0.502277 90 84 78
0.576267 1.38527 3.3956 -0.589917 -0.596514 -0.544215 96 89 83
0.583471 1.38273 3.38382 -0.586355 -0.605024 -0.538641 96 89 81
0.590324 1.38227 3.37897 -0.6337 -0.496313 -0.593379 95 88 81
0.597537 1.37938 3.36771 -0.605506 -0.56911 -0.556305 96 89 81
0.616172 1.37337 3.34405 -0.634874 -0.5002 -0.588841 97 89 81
0.893436 1.48554 3.52102 -0.635961 -0.61551 -0.465511 113 101 86
0.898461 1.48033 3.50248 -0.571684 -0.704454 -0.420621 113 100 86
0.905996 1.48139 3.49538 -0.597901 -0.676603 -0.429794 111 100 85
0.910591 1.4836 3.49725 -0.505761 -0.780772 -0.366881 112 100 86
0.914224 1.48374 3.49606 -0.603335 -0.670574 -0.431644 112 100 86
0.938164 1.4813 3.49059 -0.671813 -0.558939 -0.486059 117 105 87
0.94206 1.4821 3.48416 -0.601908 -0.674158 -0.42804 115 103 85
0.949539 1.48071 3.48014 -0.479428 -0.763967 -0.43186 121 107 88
0.946701 1.48169 3.47834 -0.670033 -0.551785 -0.496578 116 103 85
0.953941 1.48157 3.47991 -0.579299 -0.629135 -0.518268 124 110 90
0.954969 1.48621 3.48448 -0.722211 -0.426515 -0.544514 120 106 87
0.960395 1.48352 3.4769 -0.685489 -0.318262 -0.654839 124 110 91
0.963589 1.48494 3.47985 -0.742137 -0.323952 -0.58676 129 114 95
0.964736 1.48294 3.47925 -0.729644 -0.358549 -0.582291 134 119 99
0.970447 1.48216 3.47091 -0.179226 -0.547434 -0.817432 132 118 97
0.970184 1.48257 3.46981 -0.614034 -0.664721 -0.425569 129 116 95
0.978349 1.48226 3.47165 -0.743992 -0.325305 -0.583655 135 120 99
0.983367 1.48186 3.46506 -0.665869 -0.582295 -0.466424 134 119 99
0.988644 1.48206 3.46385 -0.738541 -0.373416 -0.561354 137 123 102
1.01266 1.47671 3.44603 -0.265359 -0.498955 -0.825002 140 127 106
1.00825 1.47606 3.44591 -0.473748 -0.547133 -0.690078 140 126 105
1.01572 1.47867 3.4421 -0.351445 -0.667905 -0.656041 139 126 105
1.01971 1.47849 3.44295 -0.522931 -0.152838 -0.838561 140 126 106
1.01548 1.4784 3.43795 -0.218823 -0.837849 -0.500125 138 124 104
1.02757 1.47641 3.43749 -0.64661 0.0508082 -0.761127 120 106 88
1.03041 1.47788 3.43279 -0.24588 -0.850444 -0.465069 132 118 99
1.03535 1.47888 3.43108 -0.0812619 -0.77283 -0.629389 128 114 95
1.03756 1.47834 3.43225 0.339345 -0.864449 -0.370908 112 98 81
1.04325 1.47912 3.43702 -0.205729 -0.83519 -0.510033 95 82 67
1.04851 1.47946 3.4331 -0.304094 -0.511725 -0.803532 96 82 67
1.04887 1.47904 3.42592 -0.546996 -0.441737 -0.7111 99 85 70
1.0655 1.47896 3.42324 -0.687678 -0.253212 -0.680428 93 85 67
1.06558 1.47879 3.42282 -0.692602 -0.244761 -0.678524 93 85 67
1.06262 1.47721 3.41841 -0.753548 -0.215397 -0.621104 94 85 68
1.06558 1.47879 3.42282 -0.692602 -0.244761 -0.678524 93 85 67
1.06267 1.4771 3.41814 -0.757999 -0.202487 -0.62003 94 85 68
2.12452 1.65473 3.41834 -0.88629 -0.370505 -0.277879 94 96 91
2.11758 1.644 3.39459 -0.879781 -0.377208 -0.289309 92 95 90
2.10333 1.61785 3.33026 -0.860492 -0.442014 -0.253333 92 95 90
2.15442 1.62468 3.32938 -0.372528 -0.905092 -0.205016 88 86 76
2.1591 1.62026 3.32121 -0.441029 -0.888474 -0.126914 80 77 68
2.15604 1.61873 3.311 -0.467427 -0.876013 -0.118801 75 73 63
2.17782 1.62471 3.32584 0.0203474 -0.957936 -0.286259 71 67 59
2.18094 1.62662 3.3239 0.319281 -0.821471 -0.472489 70 65 57
0.452093 1.41132 3.50072 -0.367268 -0.8412 -0.396859 81 78 74
0.457041 1.41432 3.5056 -0.334203 -0.733744 -0.591547 81 78 74
0.462432 1.41332 3.49696 -0.534328 -0.588334 -0.606924 80 77 73
0.46986 1.41247 3.50129 -0.371606 -0.644249 -0.66847 84 80 74
0.491614 1.41734 3.49858 -0.345684 -0.86238 -0.36987 85 81 75
0.513641 1.4039 3.45118 -0.6237 -0.498109 -0.6024 85 81 76
0.521674 1.39684 3.43288 -0.601165 -0.557768 -0.572271 84 80 75
0.531601 1.38674 3.40404 -0.533962 -0.680199 -0.502209 84 79 74
0.534305 1.38922 3.40459 -0.55279 -0.635789 -0.538699 85 81 75
0.534214 1.38932 3.40485 -0.558519 -0.64326 -0.523711 85 81 75
0.576607 1.38449 3.37985 -0.599706 -0.576126 -0.555366 93 86 80
0.578171 1.38799 3.38436 -0.590388 -0.595414 -0.544908 93 85 79
0.580916 1.39013 3.38527 -0.617739 -0.537625 -0.573897 93 85 79
0.588951 1.38954 3.38002 -0.629716 -0.508848 -0.586968 94 87 80
0.590373 1.38705 3.3744 -0.630883 -0.504359 -0.589583 94 87 80
0.888451 1.48741 3.51206 -0.531877 -0.751202 -0.390899 110 98 85
0.8912 1.48959 3.50869 -0.582347 -0.695607 -0.420717 110 97 85
0.897241 1.48512 3.49718 -0.596891 -0.67605 -0.432062 111 98 84
0.900345 1.48206 3.48502 -0.571868 -0.707865 -0.414601 110 98 85
0.904845 1.48129 3.49279 -0.489655 -0.794845 -0.358413 111 100 85
0.93351 1.48479 3.48217 -0.678644 -0.539715 -0.498147 112 100 84
0.93808 1.48435 3.47712 -0.648644 -0.599031 -0.469491 113 101 85
0.942927 1.48358 3.47037 -0.653075 -0.586162 -0.479486 112 100 84
0.974754 1.48394 3.46925 -0.201242 -0.563191 -0.801447 131 117 97
0.979063 1.48553 3.4671 -0.192042 -0.543447 -0.817182 131 116 97
0.983363 1.48708 3.46479 -0.194303 -0.571666 -0.797148 131 116 98
0.998367 1.48497 3.456 -0.642424 -0.618623 -0.452324 133 119 99
0.996477 1.48298 3.45327 -0.719398 -0.457902 -0.522295 133 119 99
1.00304 1.48358 3.44988 -0.705959 -0.49327 -0.508239 134 120 100
1.00515 1.48352 3.44734 -0.380235 -0.264459 -0.886275 134 120 99
1.00967 1.48354 3.44259 -0.540932 -0.575909 -0.612962 133 119 99
1.01799 1.48189 3.44032 -0.692238 -0.416797 -0.589141 135 122 102
1.02057 1.47928 3.4312 -0.502179 -0.572349 -0.648254 136 123 103
1.0301 1.48021 3.42927 -0.572092 -0.539311 -0.617944 138 125 105
1.02584 1.4792 3.42719 -0.415724 -0.857951 -0.301817 137 123 105
1.03834 1.48069 3.42494 -0.0565919 -0.669161 -0.740959 139 124 105
1.05274 1.48026 3.42559 -0.493977 -0.771627 -0.400722 95 83 67
1.06363 1.47948 3.41321 -0.577679 -0.493431 -0.65024 93 82 66
1.0679 1.47973 3.41018 -0.684196 -0.180008 -0.706735 92 82 66
1.07178 1.47909 3.40992 -0.633954 -0.37909 -0.674087 93 83 68
1.07448 1.48202 3.41286 -0.613777 -0.677876 -0.404676 93 82 68
1.07865 1.48177 3.40914 -0.605871 -0.644267 -0.466734 92 82 66
1.08178 1.48166 3.40585 -0.603601 -0.3679 -0.70733 93 83 67
2.10344 1.63289 3.35586 -0.860295 -0.444877 -0.248951 89 92 87
2.10309 1.62449 3.34544 -0.866244 -0.429718 -0.25488 92 96 91
2.10365 1.62614 3.34045 -0.859143 -0.448147 -0.247059 90 93 88
2.15205 1.62317 3.3158 -0.687 -0.713119 -0.139614 82 78 68
2.15859 1.62499 3.31741 -0.258336 -0.962605 -0.0815677 74 71 62
2.15922 1.62158 3.31334 -0.439672 -0.889229 -0.126335 74 71 61
2.15496 1.61722 3.29317 -0.32239 -0.943164 -0.0806666 72 68 59
2.1731 1.62897 3.31935 -0.0456385 -0.990742 -0.127854 71 67 58
2.17103 1.62798 3.31749 0.0393316 -0.981173 -0.189085 71 67 58
0.452801 1.41695 3.49901 -0.362418 -0.847534 -0.387735 79 76 72
0.465281 1.41571 3.49798 -0.568245 -0.598812 -0.564377 81 77 72
0.468097 1.41816 3.49911 -0.575896 -0.591635 -0.564192 82 78 72
0.471004 1.42048 3.50006 -0.573269 -0.608229 -0.549017 81 78 72
0.486385 1.41723 3.48582 -0.321266 -0.877506 -0.356048 82 79 74
0.490202 1.42425 3.50103 -0.371307 -0.845224 -0.384354 83 79 74
0.494409 1.413 3.47154 -0.350426 -0.856 -0.380087 83 79 74
0.541331 1.38715 3.39332 -0.602 -0.559618 -0.569582 86 81 75
0.541378 1.38713 3.39325 -0.603724 -0.555428 -0.571855 86 81 75
0.57454 1.39168 3.38066 -0.599524 -0.577507 -0.554127 88 83 77
0.895706 1.48891 3.50186 -0.685492 -0.508429 -0.521154 110 97 85
0.904854 1.48426 3.48525 -0.475119 -0.806523 -0.351827 109 98 86
0.909169 1.48569 3.48751 -0.634265 -0.622732 -0.458162 109 99 86
0.96267 1.48727 3.47078 -0.666252 -0.574205 -0.475812 115 103 86
0.970281 1.48962 3.47118 -0.61443 -0.559487 -0.556283 116 103 85
0.966922 1.488 3.47096 -0.671354 -0.563336 -0.481598 116 103 85
0.980701 1.48885 3.46443 -0.738338 -0.355693 -0.573009 124 110 92
0.983365 1.49068 3.46047 -0.422752 -0.727271 -0.540701 118 105 88
0.991879 1.49283 3.46259 -0.648623 -0.615033 -0.448355 126 112 94
1.00338 1.48942 3.45095 -0.598494 -0.030194 -0.800558 131 118 97
1.01861 1.48729 3.43666 -0.725394 -0.43992 -0.529408 131 117 98
1.02742 1.4818 3.42214 -0.646797 -0.624973 -0.437108 134 120 101
1.03364 1.48319 3.42441 -0.568814 -0.488151 -0.661936 135 121 102
1.03826 1.4847 3.42185 -0.571441 -0.607592 -0.551622 136 121 104
1.04654 1.48149 3.41983 -0.607728 -0.444348 -0.658196 130 116 99
1.05033 1.48231 3.41778 -0.637191 -0.250142 -0.728983 128 114 98
1.05303 1.4829 3.41477 -0.434356 -0.725333 -0.534066 130 116 99
1.06023 1.48253 3.40979 -0.576691 -0.533015 -0.619131 117 104 87
1.0623 1.48072 3.41024 -0.587245 -0.490575 -0.643801 99 87 71
1.06722 1.48277 3.41072 -0.501346 -0.64473 -0.57704 95 84 68
1.07164 1.48283 3.40533 -0.4986 -0.582526 -0.641921 93 82 67
1.07179 1.48295 3.40602 -0.482832 -0.659481 -0.576158 93 82 66
1.07576 1.48361 3.40241 -0.59483 -0.551391 -0.584932 94 83 68
1.08574 1.48337 3.40687 -0.573831 -0.388883 -0.720755 92 82 66
1.09225 1.48677 3.40688 -0.423501 -0.815027 -0.395447 92 82 67
1.09696 1.48673 3.40159 -0.636521 -0.582928 -0.50501 90 80 65
2.14727 1.62326 3.30167 -0.443756 -0.89182 -0.0879575 77 72 63
2.14499 1.615 3.28875 -0.566017 -0.817531 -0.106147 78 73 64
2.15099 1.61633 3.28757 -0.172199 -0.917224 -0.359233 72 68 58
0.457605 1.41768 3.49606 -0.149576 -0.561658 -0.813736 78 75 71
0.542262 1.39497 3.394 -0.561153 -0.612519 -0.556711 84 80 74
0.578956 1.39207 3.37706 -0.462062 -0.584914 -0.666614 90 83 78
0.586784 1.38922 3.36608 -0.558438 -0.649097 -0.516546 90 84 78
0.590878 1.38761 3.35668 -0.199681 -0.932403 -0.30125 90 84 78
0.60407 1.37799 3.32614 -0.281531 -0.904985 -0.318969 91 84 78
0.904826 1.48786 3.47926 -0.653017 -0.54347 -0.527456 107 98 86
0.933271 1.48944 3.47627 -0.688076 -0.521742 -0.504318 109 99 84
0.939868 1.48591 3.46247 -0.705446 -0.475581 -0.525518 110 98 84
0.957906 1.49278 3.47062 -0.674575 -0.561151 -0.479644 111 99 84
0.967547 1.49096 3.46091 -0.649145 -0.604574 -0.461628 110 98 83
0.962692 1.48816 3.4557 -0.67321 -0.564669 -0.477428 110 99 84
0.971081 1.49226 3.4603 -0.643817 -0.457708 -0.613191 110 99 83
0.975923 1.49186 3.45644 -0.375738 -0.881832 -0.284946 111 100 84
0.982154 1.49052 3.45188 -0.424298 -0.852354 -0.305719 113 100 84
0.986936 1.49172 3.45373 -0.425017 -0.852036 -0.305607 115 101 86
0.999972 1.49023 3.44978 -0.624764 -0.656755 -0.422307 128 115 95
1.00299 1.49203 3.45049 -0.652894 -0.609542 -0.449653 128 115 95
1.00749 1.49201 3.44875 -0.717812 -0.413578 -0.560088 129 115 95
1.03504 1.48635 3.41511 -0.550596 -0.750893 -0.364697 129 115 97
1.04259 1.48482 3.41751 -0.563296 -0.585331 -0.583168 134 121 103
1.0469 1.48503 3.41343 -0.583545 -0.564852 -0.583453 133 119 102
1.05093 1.48569 3.41088 -0.462129 -0.268138 -0.845304 133 119 101
1.05569 1.48546 3.40776 -0.509532 -0.673562 -0.535436 134 120 103
1.05983 1.48602 3.40357 -0.319715 -0.584181 -0.745999 134 120 104
1.06359 1.48416 3.40661 -0.266826 -0.625587 -0.733106 125 111 94
1.06348 1.48424 3.40682 -0.126501 -0.854403 -0.503977 125 112 94
1.06798 1.48494 3.40327 -0.310614 -0.604454 -0.73359 121 108 91
1.07996 1.48385 3.39902 -0.60345 -0.38426 -0.698708 92 81 66
1.08363 1.48509 3.39993 -0.560926 -0.428142 -0.70856 90 79 64
1.08775 1.48569 3.39833 -0.707806 -0.519796 -0.478355 89 79 64
1.0934 1.48827 3.39726 -0.357682 -0.621687 -0.696828 88 79 63
1.0983 1.48821 3.39344 -0.637202 -0.588623 -0.49749 89 79 64
1.10293 1.48717 3.38707 -0.702399 -0.291671 -0.649279 89 80 64
1.10711 1.48639 3.38484 -0.736414 -0.437017 -0.516441 90 80 65
1.11028 1.48785 3.38679 -0.740449 -0.433348 -0.513755 90 79 65
2.10316 1.63709 3.34948 -0.858697 -0.449419 -0.246295 88 89 85
2.13736 1.61671 3.28223 -0.565334 -0.818034 -0.105915 77 74 64
0.460066 1.42408 3.49738 -0.397517 -0.821415 -0.408971 76 74 69
0.458285 1.42614 3.49614 -0.211994 -0.930829 -0.297684 75 73 69
0.464637 1.42346 3.48561 -0.211689 -0.930904 -0.297667 77 74 70
0.468385 1.42293 3.49266 -0.590651 -0.56894 -0.572222 79 75 71
0.473207 1.42138 3.4874 -0.331704 -0.870833 -0.362799 78 75 70
0.479786 1.42081 3.48284 -0.323154 -0.875773 -0.358599 79 77 71
0.486219 1.42073 3.4795 -0.579599 -0.584979 -0.567331 80 77 72
0.486242 1.42022 3.47847 -0.372549 -0.838686 -0.397256 80 77 72
0.485767 1.42119 3.48032 -0.35406 -0.856415 -0.375758 80 77 72
0.491744 1.41973 3.47168 -0.330378 -0.838102 -0.434091 80 76 72
0.499369 1.40753 3.43335 -0.198999 -0.697759 -0.688137 79 76 72
0.500788 1.40973 3.44062 -0.43412 -0.793385 -0.426709 80 75 72
0.521274 1.39776 3.40074 -0.469391 -0.758343 -0.452314 81 77 73
0.525062 1.39907 3.40134 -0.583772 -0.592625 -0.554983 82 78 74
0.530324 1.3983 3.39428 -0.58085 -0.59923 -0.550942 82 78 73
0.540344 1.39813 3.38814 -0.599025 -0.448712 -0.663194 81 77 73
0.574362 1.39477 3.37273 -0.44072 -0.79483 -0.417147 85 81 75
0.578999 1.39182 3.36265 -0.487258 -0.744191 -0.456902 86 82 76
0.581361 1.39399 3.36616 -0.563304 -0.646918 -0.51399 86 81 76
0.584524 1.39108 3.35786 -0.481928 -0.746444 -0.458876 86 81 75
0.589505 1.38671 3.34134 -0.230022 -0.918861 -0.320601 87 82 76
0.597628 1.38115 3.32327 -0.281792 -0.905083 -0.318461 88 83 77
0.597343 1.3799 3.31986 -0.272909 -0.907826 -0.31839 88 83 77
0.60402 1.38046 3.31851 -0.410425 -0.819868 -0.399209 89 83 77
0.929515 1.49665 3.48251 -0.707819 -0.465973 -0.530906 108 97 84
0.933601 1.49432 3.47081 -0.703391 -0.479845 -0.524396 108 97 84
0.939079 1.49335 3.46362 -0.702941 -0.481002 -0.523938 106 97 83
0.957823 1.50114 3.47383 -0.651371 -0.606968 -0.455308 106 97 83
0.952696 1.48435 3.43218 -0.702452 -0.48692 -0.519105 107 97 83
0.961384 1.50035 3.4693 -0.705293 -0.488553 -0.51369 107 97 82
0.958153 1.48629 3.43666 -0.6783 -0.551292 -0.485785 107 97 83
0.977501 1.4915 3.44164 -0.402615 -0.865217 -0.298831 109 98 83
0.974039 1.48712 3.43203 -0.509664 -0.775178 -0.373286 108 97 83
0.994795 1.49543 3.4496 -0.640293 -0.633098 -0.434985 114 102 86
0.99926 1.49427 3.44443 -0.671807 -0.561279 -0.483365 115 103 86
0.999378 1.49478 3.44387 -0.653269 -0.610103 -0.448346 114 101 85
1.00697 1.49381 3.44182 -0.000733554 -0.147846 -0.98901 119 106 89
1.01133 1.49496 3.44032 -0.340886 -0.745923 -0.572185 121 108 91
1.02066 1.49967 3.44619 -0.704161 -0.513739 -0.490132 126 112 95
1.03764 1.48982 3.41918 -0.630301 -0.600982 -0.49147 130 116 98
1.04271 1.48882 3.41226 0.0184034 -0.678919 -0.733982 128 115 97
1.05315 1.48913 3.40612 0.607433 -0.346627 -0.714755 130 116 99
1.05481 1.48548 3.39619 -0.515991 -0.785322 -0.342085 130 116 98
1.06235 1.48929 3.39922 -0.641394 -0.644214 -0.416656 129 117 101
1.06371 1.48782 3.40252 -0.320606 -0.630531 -0.706854 134 121 104
1.06841 1.48796 3.39759 -0.41033 -0.610422 -0.677506 133 121 104
1.0726 1.48886 3.39479 -0.31224 -0.637198 -0.704617 132 121 102
1.08128 1.48838 3.39586 -0.373943 -0.437432 -0.817814 113 101 85
1.08566 1.48881 3.39484 -0.409607 -0.59192 -0.694156 104 93 77
1.0896 1.49021 3.39315 -0.39439 -0.676197 -0.622265 106 94 78
1.09439 1.48993 3.38791 -0.536682 -0.672706 -0.509352 99 87 72
1.10094 1.48939 3.39197 -0.484197 -0.685289 -0.543997 89 79 64
2.13485 1.62464 3.28876 -0.253033 -0.964069 -0.0808979 83 79 69
2.13449 1.61974 3.27529 -0.521527 -0.847659 -0.0973836 75 71 61
0.453543 1.42753 3.49315 0.0240215 -0.705308 -0.708494 74 72 68
0.472414 1.42202 3.47404 -0.33141 -0.870504 -0.363853 77 74 70
0.476772 1.41914 3.46329 -0.383762 -0.834033 -0.396379 75 73 69
0.481234 1.42012 3.46555 -0.346195 -0.862158 -0.36991 76 74 70
0.495065 1.4113 3.43482 -0.583288 -0.589504 -0.558803 78 75 71
0.505377 1.41417 3.433 -0.44044 -0.784292 -0.436919 78 75 71
0.525357 1.39724 3.38272 -0.580256 -0.602174 -0.548352 79 76 72
0.579045 1.39576 3.35668 -0.485524 -0.750098 -0.44902 83 78 74
0.583444 1.38812 3.33485 -0.507126 -0.725163 -0.465791 83 78 74
0.590859 1.38489 3.32285 -0.249124 -0.913739 -0.320965 85 80 75
0.595773 1.37935 3.3055 -0.258703 -0.838337 -0.479859 85 80 75
0.598799 1.37969 3.30602 -0.268833 -0.909689 -0.316536 87 82 76
0.606323 1.37568 3.29254 -0.306984 -0.890885 -0.334791 87 82 75
0.613553 1.37188 3.27991 -0.307842 -0.891137 -0.333328 88 83 77
0.931781 1.49645 3.46094 -0.681082 -0.538256 -0.496394 105 95 83
0.931781 1.49645 3.46094 -0.681082 -0.538256 -0.496394 105 95 83
0.939353 1.49205 3.44804 -0.565232 -0.724693 -0.394122 104 96 83
0.968684 1.49102 3.43069 -0.666059 -0.580797 -0.468018 106 96 83
0.979113 1.49118 3.42687 -0.438255 -0.842729 -0.312635 107 97 82
0.996148 1.49638 3.43466 -0.681887 -0.545809 -0.486952 108 97 83
1.0067 1.49788 3.43846 -0.455309 -0.577358 -0.677755 109 98 82
1.01119 1.49879 3.43635 -0.65457 -0.594255 -0.467332 111 99 84
1.01416 1.50112 3.43846 -0.69996 -0.521285 -0.488179 111 99 84
1.01733 1.50284 3.43997 -0.684172 -0.558308 -0.469255 112 100 84
1.01733 1.50284 3.43997 -0.684172 -0.558308 -0.469255 112 100 84
1.02731 1.50028 3.43991 -0.736017 -0.40277 -0.54411 126 114 95
1.03774 1.49172 3.41317 -0.708148 -0.508541 -0.489808 126 113 96
1.04272 1.49256 3.40877 -0.661698 -0.582184 -0.47246 126 113 96
1.04531 1.4956 3.41282 -0.745712 -0.371103 -0.55335 126 113 95
1.05109 1.49285 3.4085 -0.699291 -0.479009 -0.530606 127 113 95
1.05598 1.49109 3.40146 -0.691347 -0.502149 -0.519506 127 114 95
1.06614 1.48994 3.39684 -0.495247 -0.674162 -0.547938 129 116 99
1.07059 1.49009 3.39347 -0.540906 -0.722859 -0.429995 128 116 99
1.07722 1.48917 3.39029 -0.473903 -0.645344 -0.599122 131 120 101
1.08093 1.49086 3.3902 -0.520443 -0.705513 -0.48103 131 119 101
1.09043 1.49223 3.3847 -0.49928 -0.695014 -0.517374 132 119 103
1.09821 1.49098 3.38528 -0.567266 -0.528393 -0.631672 99 88 73
1.10251 1.49108 3.38151 -0.570999 0.248056 -0.782578 96 86 70
1.10837 1.49262 3.37803 -0.561904 0.292361 -0.773814 94 84 67
1.11558 1.49126 3.37872 0.345538 0.0125952 -0.93832 88 78 62
1.13506 1.49783 3.37697 -0.62657 -0.626539 -0.463529 86 78 63
2.1281 1.62771 3.28576 -0.637549 -0.7569 -0.143643 85 80 72
2.12723 1.62395 3.27501 -0.588806 -0.800172 -0.114159 83 78 69
2.13325 1.62399 3.27107 0.220002 -0.915034 -0.338101 72 68 58
2.13307 1.62373 3.2704 0.243538 -0.902383 -0.355521 72 68 58
0.458119 1.42938 3.49108 -0.484185 -0.738474 -0.469277 74 71 68
0.463153 1.42615 3.47989 -0.358327 -0.852914 -0.379656 75 73 69
0.468534 1.42213 3.46706 -0.0670604 -0.713878 -0.697052 75 73 70
0.540157 1.40516 3.38924 -0.631967 -0.369548 -0.681214 81 77 73
0.541101 1.40532 3.38933 -0.230779 -0.3102 -0.922235 81 77 73
0.545737 1.40511 3.39048 -0.541457 -0.673286 -0.503498 81 78 73
0.544076 1.40796 3.38942 -0.475794 -0.613187 -0.630572 81 78 73
0.601679 1.37822 3.29888 -0.461014 -0.753621 -0.46853 85 81 75
0.617524 1.3657 3.25849 -0.537721 -0.68711 -0.488606 88 83 78
0.618782 1.36614 3.25903 -0.514966 -0.716277 -0.470911 88 84 78
0.616326 1.36258 3.2525 -0.658022 -0.391269 -0.643363 88 83 78
0.638932 1.36493 3.24403 -0.469486 -0.772222 -0.428085 88 83 77
0.942344 1.48929 3.43633 -0.561182 -0.728607 -0.392692 104 95 82
0.947051 1.48809 3.4309 -0.531368 -0.743775 -0.40552 104 95 82
0.974051 1.49035 3.42613 -0.417557 -0.793364 -0.442967 107 96 83
1.00375 1.49887 3.43189 -0.698241 -0.453895 -0.553569 107 97 82
1.02097 1.5023 3.43543 0.0398499 -0.34288 -0.938533 114 101 85
1.02843 1.50331 3.43382 -0.627713 -0.65807 -0.415838 119 106 90
1.03681 1.499 3.41413 -0.71089 -0.501485 -0.493101 117 105 89
1.0515 1.49259 3.39786 -0.752262 -0.347341 -0.559872 124 111 92
1.05178 1.49687 3.40144 -0.70968 -0.509838 -0.486229 124 111 92
1.05506 1.49826 3.40226 -0.707389 -0.514833 -0.484302 124 111 92
1.06013 1.49677 3.40097 -0.702285 -0.531957 -0.473094 125 113 95
1.0685 1.49598 3.39254 -0.68509 -0.55886 -0.467256 125 113 96
1.07757 1.49238 3.38427 -0.660892 -0.594589 -0.457915 126 114 96
1.0806 1.49455 3.38608 -0.70848 -0.519581 -0.477589 127 115 97
1.08732 1.49298 3.37582 -0.713659 -0.454709 -0.532851 128 115 98
1.09131 1.49404 3.3751 -0.714026 -0.509441 -0.480246 128 115 99
1.09511 1.49336 3.38061 -0.562404 -0.483783 -0.670564 134 121 106
1.09961 1.49309 3.37628 -0.587368 -0.505416 -0.632103 131 119 102
1.10447 1.49468 3.37631 -0.447853 -0.502813 -0.739329 126 114 96
1.10832 1.49621 3.37437 -0.388436 -0.511652 -0.766375 128 116 98
1.11277 1.49623 3.37112 -0.573877 -0.486145 -0.659036 119 107 89
1.11439 1.49405 3.37495 -0.398462 0.24502 -0.883851 92 82 66
1.12001 1.49442 3.37326 -0.341908 0.262383 -0.90236 84 75 60
1.1253 1.49571 3.37421 -0.603914 -0.391126 -0.694484 85 77 62
1.13314 1.4969 3.37326 -0.546857 -0.648965 -0.528954 86 77 62
1.13315 1.49685 3.37315 -0.560859 -0.631034 -0.535942 86 77 62
1.13368 1.49739 3.3645 -0.656645 -0.499896 -0.564731 87 78 63
1.13689 1.49852 3.3727 -0.603421 -0.706962 -0.3689 86 77 63
1.14196 1.49791 3.36642 -0.571365 -0.669974 -0.474001 87 78 64
2.12544 1.62069 3.25963 0.243894 -0.902076 -0.356053 74 70 59
2.13881 1.62226 3.25779 0.232581 -0.904959 -0.356309 69 65 55
0.499363 1.41885 3.43188 -0.485687 -0.741522 -0.462875 74 72 68
0.522841 1.40036 3.37705 -0.59914 -0.521681 -0.607355 76 74 70
0.525268 1.40286 3.37948 -0.49265 -0.390722 -0.777581 76 74 70
0.539927 1.40858 3.38543 0.302092 -0.44729 -0.841827 79 76 72
0.540404 1.40912 3.38602 0.185548 -0.504221 -0.843406 79 76 72
0.544175 1.4089 3.38793 0.344266 -0.427879 -0.835703 81 77 73
0.552003 1.40962 3.38437 -0.394603 -0.731054 -0.556641 80 76 72
0.553973 1.41207 3.38905 -0.516565 -0.70528 -0.485531 80 76 72
0.559728 1.40572 3.36555 -0.632017 -0.488533 -0.601574 78 75 70
0.592064 1.38356 3.30563 -0.308422 -0.891281 -0.332405 82 78 73
0.595664 1.38225 3.29937 -0.286484 -0.900183 -0.32802 81 77 72
0.599826 1.37887 3.29009 -0.270778 -0.9108 -0.311646 81 78 72
0.60542 1.37642 3.28115 -0.512588 -0.720189 -0.467528 83 79 74
0.611021 1.37323 3.26681 -0.535005 -0.690691 -0.486534 82 79 74
0.617835 1.36738 3.24802 -0.65332 -0.417337 -0.631667 83 79 75
0.621998 1.36485 3.23956 -0.466956 -0.7691 -0.43639 85 81 76
0.626422 1.36192 3.22994 -0.467659 -0.769106 -0.435626 86 82 76
0.634247 1.36653 3.23803 -0.106763 -0.70402 -0.702109 86 82 76
0.638343 1.36871 3.23783 -0.446327 -0.794895 -0.411015 86 81 76
0.944597 1.49398 3.42934 -0.680937 -0.486966 -0.546981 103 93 84
0.947555 1.49608 3.43186 -0.676282 -0.55182 -0.487993 103 93 84
0.947588 1.49602 3.43171 -0.679213 -0.542671 -0.494144 104 93 84
0.964741 1.49364 3.42659 -0.650063 -0.571309 -0.501023 105 95 82
0.96788 1.49571 3.42844 -0.638467 -0.510463 -0.57601 105 94 82
0.97818 1.49558 3.42376 -0.669442 -0.576686 -0.468273 105 96 84
0.993262 1.49902 3.42719 -0.723961 -0.436335 -0.534314 106 96 83
0.996368 1.50061 3.42929 -0.679719 -0.562509 -0.470707 106 96 83
1.01088 1.50348 3.43105 -0.705086 -0.495181 -0.507592 108 97 83
1.01795 1.50524 3.43121 -0.58867 -0.494328 -0.639614 109 96 84
1.01966 1.50363 3.42853 -0.596748 -0.697401 -0.396892 109 97 84
1.02415 1.50491 3.42613 -0.576627 -0.723435 -0.379663 110 97 83
1.03957 1.50303 3.41804 -0.642631 -0.48005 -0.597141 116 103 88
1.04354 1.50129 3.40438 -0.648181 -0.373 -0.663877 111 100 84
1.04265 1.50051 3.39992 -0.74233 -0.356443 -0.567357 110 98 82
1.04844 1.499 3.39789 -0.737308 -0.417543 -0.531069 115 103 86
1.05162 1.50031 3.40035 -0.712281 -0.501406 -0.491169 118 106 89
1.0517 1.50021 3.39934 -0.718686 -0.486962 -0.496346 118 106 89
1.06156 1.49887 3.38917 -0.695347 -0.548414 -0.464473 119 108 91
1.06844 1.49849 3.3896 -0.698317 -0.5431 -0.466257 125 114 97
1.07612 1.49917 3.38494 -0.665982 -0.587113 -0.460182 124 112 95
1.07612 1.49917 3.38494 -0.665982 -0.587113 -0.460182 124 112 95
1.07611 1.4992 3.385 -0.665883 -0.587609 -0.45969 124 112 95
1.07427 1.4947 3.37708 -0.685515 -0.567947 -0.455527 124 113 96
1.1003 1.49704 3.3714 -0.578053 -0.67616 -0.456796 129 116 98
1.10995 1.49865 3.3663 -0.588443 -0.515488 -0.622902 129 117 99
1.12736 1.49837 3.36664 -0.461019 -0.464735 -0.755965 92 83 67
1.12357 1.49929 3.36209 -0.436845 0.414282 -0.798459 120 110 93
1.12979 1.49816 3.36731 -0.442028 -0.644307 -0.624083 88 79 63
1.13405 1.4987 3.36417 -0.449554 -0.629973 -0.633273 89 80 65
1.13818 1.49948 3.36152 -0.500963 -0.652099 -0.569037 87 77 63
1.13741 1.49829 3.36321 -0.719252 -0.516092 -0.465108 86 77 63
1.13756 1.49789 3.36277 -0.585953 -0.48541 -0.648873 86 77 63
1.14235 1.49977 3.35683 -0.391594 -0.587981 -0.707766 86 77 62
1.14565 1.49861 3.36196 -0.495372 -0.701792 -0.511951 85 77 62
1.14866 1.49948 3.36112 -0.627241 -0.553663 -0.547746 86 78 63
2.13289 1.62555 3.26067 0.206779 -0.924373 -0.32059 69 66 55
0.536166 1.40994 3.37998 -0.237882 -0.79384 -0.559671 76 73 70
0.540759 1.41118 3.37816 0.167404 -0.929114 -0.329732 75 72 68
0.546919 1.41102 3.38212 0.0992711 -0.810867 -0.57675 80 76 72
0.552426 1.41085 3.37997 -0.452994 -0.777333 -0.436521 79 75 71
0.552564 1.41235 3.37811 -0.467645 -0.673818 -0.572082 78 75 71
0.554852 1.41052 3.37869 -0.603716 -0.563967 -0.563443 79 76 71
0.56269 1.40746 3.3666 -0.630711 -0.493085 -0.599225 78 74 70
0.565346 1.40954 3.36857 -0.611952 -0.548293 -0.569991 79 76 71
0.565188 1.4093 3.36789 -0.613596 -0.544497 -0.571859 79 76 71
0.613609 1.36231 3.22206 -0.337464 -0.872348 -0.353734 79 76 70
0.624217 1.36048 3.21235 -0.173109 -0.935276 -0.308695 82 78 73
0.634316 1.36195 3.21269 0.262132 -0.843965 -0.467986 83 79 73
