ply
format ascii 1.0
element vertex 734
property float x
property float y
property float z
property float nx
property float ny
property float nz
property uchar diffuse_red
property uchar diffuse_green
property uchar diffuse_blue
end_header
-0.241296 -1.45394 4.03127 0.569651 0.794439 -0.210628 64 72 77
-0.234511 -1.45343 4.03779 0.055921 0.906041 -0.419479 30 38 42
-0.233155 -1.49618 4.15618 0.79327 0.271484 -0.544994 20 27 31
-0.233323 -1.49596 4.15593 0.874654 0.0102683 -0.484639 20 27 31
-0.232595 -1.49836 4.15884 0.78716 0.115893 -0.605763 20 27 31
-0.232505 -1.5073 4.17847 0.818952 -0.0549847 -0.571222 31 37 41
-0.207189 -1.44728 4.01988 0.885501 0.147733 -0.440526 22 28 30
-0.242024 -1.44961 4.03893 0.646169 0.72611 -0.235011 57 66 72
-0.204212 -1.44391 4.02613 -0.230717 -0.531629 -0.814948 18 24 26
-0.233296 -1.48572 4.15879 0.845076 -0.0236344 -0.534123 20 27 29
-0.234834 -1.48622 4.15183 0.736132 -0.192444 -0.648903 18 24 28
-0.231605 -1.49581 4.17809 0.858782 -0.0604701 -0.50876 34 41 46
-0.231805 -1.4971 4.17841 0.845576 -0.0937968 -0.525551 34 41 45
-0.233402 -1.48387 4.15679 0.804834 -0.192497 -0.561416 21 28 30
-0.208423 -1.49492 4.1983 -0.654877 0.443036 -0.612254 102 111 113
-0.205341 -1.49353 4.19547 -0.447265 0.659736 -0.603906 83 93 96
-0.199767 -1.48988 4.18018 -0.525634 0.279284 -0.80356 75 85 87
-0.23441 -1.47713 4.16404 0.657272 0.443827 -0.609106 20 27 30
-0.234312 -1.47846 4.16299 0.752077 0.18196 -0.633459 21 27 30
-0.230043 -1.4834 4.17523 0.840709 0.333867 -0.426311 41 49 52
-0.230171 -1.48533 4.17695 0.850641 0.22398 -0.475649 42 51 54
-0.223526 -1.50839 4.24682 -0.543528 0.286019 -0.789158 129 137 138
-0.236393 -1.47144 4.16003 0.602664 0.673194 -0.428493 17 25 27
-0.230504 -1.50538 4.25834 -0.299805 0.766927 -0.567397 134 143 143
-0.223091 -1.50596 4.24773 -0.696613 0.242069 -0.675376 124 134 134
-0.219255 -1.50097 4.24423 -0.641156 0.454345 -0.618458 92 103 104
-0.212478 -1.49335 4.22641 -0.712639 0.354179 -0.60556 73 85 86
-0.212478 -1.49335 4.22641 -0.712639 0.354179 -0.60556 73 85 86
-0.201857 -1.48399 4.19402 -0.483974 0.785927 -0.38482 71 82 83
-0.202079 -1.48415 4.19803 -0.345721 0.883609 -0.315771 68 78 79
-0.23324 -1.47308 4.17306 0.836845 0.431428 -0.336988 31 39 42
-0.233669 -1.47195 4.17685 0.832558 0.41913 -0.362185 34 42 45
-0.237178 -1.50348 4.2604 0.620265 0.702434 -0.349082 104 116 118
-0.229208 -1.50276 4.26389 -0.296747 0.90979 -0.290213 132 142 141
-0.221156 -1.49914 4.25213 -0.553382 0.71426 -0.428488 90 103 103
-0.218523 -1.49863 4.24709 -0.531875 0.733908 -0.422478 75 88 88
-0.209729 -1.48896 4.22134 -0.0619306 0.90891 -0.412367 60 71 72
-0.182547 -0.997387 2.84739 0.329827 -0.604773 -0.724889 14 20 22
-0.182783 -0.997984 2.84869 0.351444 -0.597344 -0.720879 14 20 22
-0.176061 -0.998753 2.85084 0.343786 -0.598751 -0.723401 53 59 61
-0.169303 -0.999585 2.85316 0.473917 -0.540558 -0.695126 27 32 34
-0.233103 -1.49981 4.26807 0.0121196 0.88781 -0.460051 133 143 142
-0.232425 -1.49887 4.27029 -0.223596 0.878828 -0.421504 133 142 141
-0.224363 -1.49782 4.26399 -0.362048 0.841039 -0.401965 96 107 107
-0.214869 -1.4861 4.23642 -0.543145 0.193453 -0.817049 66 77 79
-0.202432 -1.48281 4.21735 -0.320877 0.898038 -0.300939 44 53 55
-0.182501 -0.990846 2.84143 0.332595 -0.603087 -0.725029 18 24 26
-0.176056 -0.992475 2.84561 0.345906 -0.59655 -0.724208 54 60 62
-0.166651 -0.991621 2.84234 0.319333 -0.590499 -0.741173 25 30 32
-0.238061 -1.46259 4.17179 0.72638 0.557742 -0.401617 16 22 26
-0.233641 -1.46759 4.18502 0.593247 0.743031 -0.309779 38 45 50
-0.229606 -1.49958 4.27686 -0.287607 0.887846 -0.359182 120 130 131
-0.215739 -1.48592 4.23823 -0.719851 0.221055 -0.657989 71 81 83
-0.20984 -1.48206 4.22578 -0.239026 -0.369033 -0.898154 48 58 60
-0.206802 -1.48145 4.22454 -0.0176795 0.406 -0.913702 40 49 51
-0.181896 -0.987237 2.84089 0.748039 -0.30332 -0.590284 33 40 41
-0.176005 -0.986006 2.83987 0.336533 -0.58617 -0.736987 54 61 63
-0.169156 -0.985204 2.83712 0.178025 -0.64107 -0.74655 27 33 34
-0.168999 -0.984937 2.83672 -0.0786101 -0.579016 -0.811518 26 33 34
-0.240222 -1.45965 4.18042 0.541806 0.736328 -0.4053 17 24 29
-0.235371 -1.46167 4.19137 0.65279 0.596066 -0.467515 37 44 48
-0.238258 -1.49453 4.2817 -0.161087 0.889318 -0.427978 130 141 141
-0.236658 -1.49177 4.28236 -0.698579 0.30505 -0.647249 130 142 141
-0.230343 -1.49134 4.27647 -0.585297 0.14558 -0.797642 129 139 139
-0.222349 -1.48762 4.26972 -0.706703 0.133656 -0.694771 60 70 72
-0.216598 -1.48231 4.2473 -0.633419 0.23898 -0.735982 60 70 72
-0.210109 -1.47694 4.22874 -0.106427 -0.358539 -0.927428 44 53 55
-0.184064 -0.983504 2.84095 0.152644 0.0467007 -0.987177 37 43 45
-0.177788 -0.98015 2.83384 0.365452 -0.410354 -0.835497 58 66 68
-0.171903 -0.984325 2.83821 -0.234701 -0.496971 -0.835425 36 43 44
-0.166727 -0.980873 2.83198 0.423005 -0.568028 -0.705982 25 32 33
-0.239941 -1.45382 4.18707 0.55403 0.0126838 -0.8324 19 26 30
-0.236563 -1.48791 4.28409 -0.712874 0.348892 -0.608346 131 142 141
-0.231638 -1.48671 4.27881 -0.05483 0.0236189 -0.998216 130 141 142
-0.221791 -1.48504 4.267 -0.715862 0.341544 -0.609007 62 73 74
-0.212149 -1.4746 4.24016 -0.239872 0.927425 -0.286959 38 47 49
-0.212307 -1.47722 4.2441 -0.680836 0.392994 -0.618076 33 42 43
-0.212912 -1.47636 4.24332 -0.226908 0.930334 -0.288083 38 47 48
-0.179813 -0.977396 2.83194 0.370787 -0.585062 -0.721262 52 59 61
-0.171934 -0.979041 2.83315 -0.362452 -0.393407 -0.844902 40 47 48
-0.168538 -0.977004 2.83157 0.454804 -0.390486 -0.800421 24 31 32
-0.233792 -1.45361 4.19075 0.338026 0.0482521 -0.939899 39 45 50
-0.234712 -1.48382 4.28227 -0.284237 0.872261 -0.397957 130 141 142
-0.228004 -1.48214 4.27792 0.0667765 0.352635 -0.933375 112 123 125
-0.221985 -1.48159 4.27231 -0.687958 0.236863 -0.68601 55 65 67
-0.221094 -1.47899 4.26936 -0.722391 0.22524 -0.653773 53 64 66
-0.211812 -1.4713 4.25021 -0.677454 0.217807 -0.702578 24 32 34
-0.171866 -0.974626 2.83048 0.397062 -0.527552 -0.75102 37 44 44
-0.238936 -1.44528 4.18273 -0.0429984 -0.0373255 -0.998378 21 29 33
-0.242181 -1.43913 4.17323 0.762494 -0.251761 -0.596003 15 24 26
-0.235691 -1.4462 4.18512 0.0792683 -0.530492 -0.843976 35 42 46
-0.231658 -1.47878 4.28506 -0.0373261 0.870273 -0.491153 129 140 140
-0.219819 -1.47391 4.26545 -0.721123 0.220357 -0.656829 51 61 63
-0.183324 -0.953541 2.78615 0.695422 -0.371598 -0.615064 29 35 37
-0.171769 -0.968177 2.82472 0.39259 -0.58526 -0.709467 32 39 38
-0.236398 -1.4405 4.18597 0.787485 -0.189901 -0.586349 34 43 47
-0.238012 -1.44071 4.18835 0.693863 -0.366163 -0.620064 31 40 44
-0.22391 -1.47523 4.28541 -0.0828469 0.820923 -0.564997 47 57 60
-0.225887 -1.47577 4.28769 -0.485719 0.671872 -0.559165 64 75 78
-0.216566 -1.46171 4.25444 -0.721728 0.226321 -0.654131 54 66 68
-0.178009 -0.952191 2.79156 0.695017 -0.372476 -0.61499 25 31 32
-0.177185 -0.955795 2.80082 0.387036 -0.589076 -0.709361 43 48 50
-0.177185 -0.955795 2.80082 0.387036 -0.589076 -0.709361 43 48 50
-0.175474 -0.956097 2.8021 0.3874 -0.58897 -0.70925 49 55 57
-0.171336 -0.959602 2.81249 0.387083 -0.588538 -0.709781 37 43 45
-0.246759 -1.47043 4.29098 0.742118 0.609863 -0.278081 41 53 58
-0.24441 -1.46976 4.29613 0.889356 0.200427 -0.410944 73 86 92
-0.241754 -1.46993 4.3002 0.704923 0.380448 -0.598618 109 122 128
-0.238771 -1.47361 4.29829 -0.0257851 0.908829 -0.416372 127 140 140
-0.230411 -1.47046 4.29965 -0.408202 0.841953 -0.352825 79 89 95
-0.225715 -1.47152 4.29036 -0.717492 0.301349 -0.628008 54 64 68
-0.179684 -0.94645 2.78491 0.537894 -0.256033 -0.803192 23 29 29
-0.177559 -0.946483 2.78967 0.630553 -0.055998 -0.774124 33 39 40
-0.170963 -0.951404 2.80126 0.20551 -0.62735 -0.751131 51 56 59
-0.246893 -1.46159 4.27836 0.813505 0.145187 -0.563143 41 51 58
-0.246914 -1.46032 4.27486 0.86803 0.105834 -0.485101 40 51 58
-0.24461 -1.4686 4.30019 0.739357 0.613711 -0.276966 78 90 96
-0.238763 -1.46962 4.30676 0.0420858 0.980741 -0.190725 108 119 126
-0.227282 -1.46521 4.30241 -0.332893 0.88928 -0.313628 37 47 51
-0.179611 -0.941269 2.78236 0.854505 -0.0978213 -0.510149 25 31 32
-0.175784 -0.946142 2.79352 0.839068 0.074166 -0.538948 52 58 61
-0.171104 -0.945788 2.79824 0.582836 -0.306038 -0.752757 46 51 54
-0.24733 -1.46052 4.30238 0.829723 0.445328 -0.336516 60 73 80
-0.248404 -1.45223 4.27787 0.889055 0.120302 -0.441712 54 66 73
-0.247425 -1.4619 4.30095 0.832466 0.445372 -0.329613 66 79 86
-0.22966 -1.4633 4.29975 -0.621148 0.613127 -0.488108 54 64 70
-0.176593 -0.938623 2.78138 0.731714 -0.322874 -0.600289 37 44 44
-0.176572 -0.938505 2.78103 0.724334 -0.338106 -0.600853 36 43 44
-0.176579 -0.940926 2.78823 0.846285 -0.120073 -0.519023 43 50 51
-0.173144 -0.94146 2.79506 0.877099 -0.0108065 -0.480188 50 56 58
-0.166061 -0.943347 2.79685 0.579827 -0.302321 -0.756573 23 29 31
-0.178902 -0.933426 2.78146 0.861955 -0.0763655 -0.501201 41 47 48
-0.175975 -0.93756 2.78737 0.862326 -0.074552 -0.500835 46 53 55
-0.168191 -0.939565 2.79526 0.68794 -0.380845 -0.617815 24 29 32
-0.181835 -0.929423 2.77592 0.851535 -0.112367 -0.512115 20 26 28
-0.172629 -0.931554 2.78816 0.875737 -0.0106789 -0.482671 46 52 54
-0.16953 -0.935346 2.79382 0.876979 -0.0118795 -0.480381 24 29 31
-0.190079 -0.917795 2.75606 0.78354 -0.212235 -0.58397 40 46 46
-0.185108 -0.927594 2.77725 0.853328 -0.106928 -0.510292 18 24 25
-0.175618 -0.927207 2.78082 0.879807 0.0801257 -0.46853 58 64 67
-0.175323 -0.930018 2.78736 0.862247 -0.075399 -0.500844 56 63 65
-0.190602 -0.918681 2.76898 0.840754 -0.131706 -0.525153 25 31 32
-0.184829 -0.920477 2.77431 -0.00335507 -0.355634 -0.934619 17 23 25
-0.180828 -0.921845 2.77558 0.620483 -0.224442 -0.751416 32 40 42
-0.169026 -0.92548 2.78683 0.875194 -0.021621 -0.483288 22 27 29
-0.16902 -0.925445 2.78673 0.8756 -0.0187819 -0.482672 22 27 29
-0.169384 -0.927779 2.79368 0.874106 -0.0263873 -0.485018 20 25 27
-0.189523 -0.910892 2.75346 0.808885 0.0578571 -0.585114 37 43 43
-0.184062 -0.91957 2.77555 0.69175 0.266688 -0.671088 19 25 27
-0.182212 -0.915868 2.77277 0.680868 0.171412 -0.712065 22 27 30
-0.177085 -0.91577 2.77372 0.228637 -0.248157 -0.941352 53 60 62
-0.17424 -0.920191 2.78048 0.861453 -0.078711 -0.501701 55 61 63
-0.175868 -0.917813 2.7743 0.882629 0.0254574 -0.469381 56 63 65
-0.172219 -0.922299 2.78294 0.367308 -0.60287 -0.708261 40 45 48
-0.190077 -0.909869 2.75665 0.0603336 -0.526768 -0.847865 33 39 40
-0.188587 -0.907085 2.75603 0.299228 -0.624544 -0.721393 24 30 30
-0.185944 -0.915347 2.77313 0.0139545 -0.149249 -0.988701 15 21 22
-0.182594 -0.912122 2.77033 0.831033 -0.0705899 -0.551725 21 28 30
-0.171966 -0.917712 2.781 0.834686 -0.152012 -0.529331 34 39 41
-0.186365 -0.906876 2.76673 0.0687235 -0.594662 -0.801033 14 20 20
-0.181591 -0.906464 2.76628 0.754267 -0.306087 -0.580855 28 36 37
-0.182745 -0.906785 2.76736 0.668152 -0.404765 -0.62429 24 31 32
-0.179327 -0.911124 2.77129 0.775153 -0.273173 -0.569662 43 48 52
-0.173345 -0.911562 2.77708 0.717658 0.240072 -0.653707 37 43 44
-0.169489 -0.911365 2.7753 0.891219 0.177703 -0.417312 21 27 28
-0.167922 -0.912177 2.77635 0.677313 -0.395075 -0.620615 19 26 28
-0.188132 -0.89877 2.74403 0.154848 -0.655441 -0.739202 37 43 44
-0.183842 -0.902435 2.76359 0.675075 -0.335615 -0.65699 13 19 21
-0.17452 -0.904359 2.76992 0.182486 -0.463079 -0.867327 44 51 53
-0.187678 -0.890068 2.73158 0.175207 -0.657677 -0.732642 40 45 46
-0.18595 -0.898695 2.7621 -0.196222 -0.298736 -0.933945 13 18 19
-0.180074 -0.901121 2.76625 0.678303 -0.392956 -0.620879 39 46 48
-0.176365 -0.901588 2.76384 0.76994 0.0721268 -0.634027 48 55 57
-0.176937 -0.898549 2.76398 -0.107483 -0.415245 -0.903338 52 59 61
-0.178626 -0.898751 2.76391 0.472008 -0.446123 -0.760383 46 54 55
-0.170036 -0.898006 2.76152 -0.388582 -0.37748 -0.840543 30 37 38
-0.180136 -0.89447 2.76202 0.453132 -0.323009 -0.830865 38 45 46
-0.176729 -0.895208 2.76134 0.811112 -0.193646 -0.551904 52 60 61
-0.170592 -0.897937 2.76343 -0.127849 -0.559512 -0.818902 29 35 37
-0.163141 -0.894312 2.75831 0.686798 -0.12452 -0.716103 33 41 44
-0.183165 -0.893589 2.76062 0.346386 -0.26391 -0.900204 18 25 26
-0.180582 -0.892915 2.76121 0.382463 -0.217558 -0.897993 36 43 44
-0.17519 -0.891071 2.7609 0.237052 -0.453969 -0.858905 53 61 63
-0.174013 -0.894131 2.76411 -0.25762 -0.489563 -0.833043 43 50 52
-0.170631 -0.891094 2.75926 -0.31915 -0.442619 -0.837992 24 31 34
-0.1672 -0.890593 2.75579 -0.104049 -0.185209 -0.977175 19 26 28
-0.162492 -0.890925 2.75565 0.0654833 -0.121971 -0.990371 39 47 50
-0.158943 -0.890176 2.75539 0.28771 0.222895 -0.931419 59 68 72
-0.185206 -0.889369 2.75902 0.42491 -0.407375 -0.808392 11 17 17
-0.180258 -0.889031 2.75986 0.285172 -0.343065 -0.894977 37 45 48
-0.182484 -0.88833 2.75844 -0.235756 -0.473553 -0.848626 21 29 29
-0.176782 -0.888973 2.75902 -0.0348124 -0.478156 -0.877585 51 59 61
-0.164463 -0.88554 2.75369 0.480516 -0.553366 -0.680361 27 35 38
-0.15978 -0.885627 2.75226 0.403109 -0.451526 -0.796007 40 48 52
-0.187086 -0.885777 2.75918 0.216626 -0.512732 -0.830771 13 20 18
-0.180451 -0.883854 2.75694 -0.163875 -0.551307 -0.81805 39 47 49
-0.173432 -0.883857 2.75667 -0.246945 -0.489872 -0.836089 39 47 50
-0.165194 -0.88354 2.75328 0.490618 -0.546423 -0.678761 33 41 45
-0.164445 -0.87969 2.7487 0.487582 -0.551838 -0.676564 38 48 51
-0.187131 -0.880304 2.75633 -0.0046046 -0.54205 -0.840334 12 19 17
-0.186122 -0.881699 2.757 0.730728 -0.343794 -0.589782 14 21 20
-0.172212 -0.878761 2.75223 -0.493335 -0.24649 -0.834184 41 49 53
-0.170021 -0.875586 2.74632 -0.496777 -0.241912 -0.833482 40 49 53
-0.187247 -0.87453 2.75398 -0.177927 -0.437499 -0.88144 12 18 17
-0.182824 -0.874152 2.75454 0.432514 -0.420738 -0.797441 35 43 45
-0.180668 -0.87774 2.75544 0.732625 -0.340206 -0.589509 50 59 62
-0.175954 -0.874223 2.755 -0.284112 -0.238687 -0.928606 61 70 75
-0.167747 -0.870978 2.74463 -0.599372 -0.02659 -0.800029 31 40 46
-0.142131 -0.860642 2.70937 -0.561024 -0.0951282 -0.822315 54 64 71
-0.14442 -0.864053 2.72046 -0.648533 0.337233 -0.682407 29 39 46
-0.18445 -0.869606 2.75169 -0.0478579 -0.412307 -0.909787 17 24 24
-0.177431 -0.870455 2.75373 0.465882 -0.397185 -0.790694 62 72 76
-0.184257 -0.869134 2.7516 -0.144389 -0.419663 -0.896122 19 26 26
-0.17902 -0.8688 2.75203 -0.0784855 -0.456113 -0.886454 64 73 76
-0.178906 -0.865627 2.75001 0.390343 -0.46062 -0.797158 64 74 76
-0.177534 -0.87007 2.75341 0.487419 -0.367791 -0.79193 63 72 77
-0.165217 -0.867368 2.74674 -0.127552 0.34192 -0.931032 62 74 85
-0.159246 -0.867364 2.7473 0.172119 -0.45717 -0.872566 107 119 129
-0.152685 -0.864458 2.73863 0.189113 0.170324 -0.967071 69 80 88
-0.148843 -0.860907 2.72739 -0.389957 0.272506 -0.879588 73 84 91
-0.140777 -0.853546 2.71094 -0.514402 0.684612 -0.516427 38 49 54
-0.139986 -0.853402 2.71087 -0.426965 0.773626 -0.468192 34 44 49
-0.198486 -0.863871 2.75517 0.0242482 0.967674 -0.251036 23 29 29
-0.193267 -0.866913 2.75686 0.00417914 0.973362 -0.229237 12 17 17
-0.188255 -0.864292 2.75172 -0.0967061 -0.266761 -0.958899 13 18 18
-0.187933 -0.864999 2.7512 0.0947013 -0.26074 -0.960753 13 18 19
-0.181287 -0.864026 2.74977 0.216292 -0.394344 -0.893147 53 63 64
-0.180718 -0.861434 2.74822 0.272331 -0.408317 -0.871271 55 65 68
-0.17588 -0.863862 2.75033 -0.0820272 -0.46764 -0.880105 53 63 67
-0.16848 -0.861918 2.74356 -0.0537143 -0.401933 -0.914092 22 33 40
-0.16214 -0.862245 2.74421 0.0386859 -0.393413 -0.918548 89 103 115
-0.15604 -0.862037 2.74381 0.0574396 -0.418894 -0.906217 94 107 117
-0.154127 -0.859056 2.73845 -0.647812 0.191585 -0.737316 92 105 115
-0.143875 -0.854801 2.71647 -0.578838 0.579419 -0.573778 57 68 75
-0.143522 -0.854095 2.7217 -0.653195 0.256524 -0.712412 31 41 48
-0.193647 -0.863133 2.75474 -0.624473 0.37656 -0.684278 12 16 16
-0.183556 -0.859012 2.7459 -0.0893151 -0.576427 -0.812253 31 37 40
-0.185151 -0.857866 2.74524 -0.124024 -0.564801 -0.815854 19 25 27
-0.172462 -0.857599 2.74444 -0.403211 -0.360983 -0.840899 27 37 43
-0.165511 -0.857367 2.74283 -0.147909 -0.566888 -0.810408 52 65 73
-0.157701 -0.857494 2.74212 -0.556242 0.238654 -0.796014 96 110 121
-0.154512 -0.856604 2.73357 -0.645392 0.147846 -0.749407 100 114 126
-0.152741 -0.856737 2.74036 -0.631231 0.229722 -0.740794 58 71 79
-0.152231 -0.855962 2.73863 -0.633753 0.106028 -0.766235 59 73 81
-0.146249 -0.851233 2.72347 -0.631513 0.0586418 -0.773144 52 64 71
-0.146231 -0.851123 2.72312 -0.625442 0.0781149 -0.776351 54 66 73
-0.199234 -0.862476 2.7651 -0.431016 0.775083 -0.462031 12 17 17
-0.182897 -0.856885 2.74557 0.581346 -0.458096 -0.672447 43 50 54
-0.183711 -0.852928 2.74341 0.0691168 -0.57629 -0.814317 40 46 50
-0.177315 -0.856796 2.74703 0.343862 -0.262169 -0.90168 64 74 78
-0.173011 -0.853766 2.74306 -0.442523 -0.318084 -0.838449 33 44 49
-0.167635 -0.85254 2.73861 0.43845 -0.396193 -0.806718 27 37 44
-0.163845 -0.854819 2.74159 -0.382475 -0.391517 -0.836915 69 81 92
-0.145708 -0.848748 2.721 -0.604804 0.478829 -0.636345 58 70 77
-0.141721 -0.848726 2.72229 -0.653341 0.250637 -0.714372 26 37 43
-0.185315 -0.851695 2.7429 -0.185874 -0.50228 -0.844492 19 25 28
-0.184031 -0.852265 2.74293 0.485986 -0.474233 -0.734112 34 40 44
-0.183695 -0.84959 2.74405 -0.516356 0.437973 -0.735905 49 56 60
-0.179244 -0.852189 2.74407 0.343166 -0.347113 -0.872783 72 79 87
-0.178559 -0.851069 2.74424 0.745976 -0.148071 -0.649303 77 85 92
-0.177553 -0.85105 2.74504 0.455469 -0.343707 -0.821227 80 89 96
-0.16958 -0.849757 2.73722 -0.313881 -0.337683 -0.887383 27 38 43
-0.165612 -0.850834 2.73959 0.571383 -0.346629 -0.743888 60 72 81
-0.159202 -0.852506 2.74299 -0.318633 0.324614 -0.890561 115 127 137
-0.153689 -0.848482 2.73416 -0.642286 0.146349 -0.752363 108 123 133
-0.145745 -0.844091 2.72498 -0.391721 0.815573 -0.425906 65 77 84
-0.190873 -0.847733 2.74898 -0.440856 0.230238 -0.867546 16 23 23
-0.185621 -0.846206 2.74336 -0.143939 0.15252 -0.977762 27 34 36
-0.188805 -0.849333 2.74573 -0.40362 0.0268059 -0.914534 14 20 21
-0.183988 -0.848087 2.74324 0.309678 -0.135329 -0.941162 42 49 53
-0.179883 -0.847279 2.7422 0.114594 -0.196992 -0.973685 78 86 92
-0.179131 -0.846346 2.7416 0.443442 -0.149056 -0.883822 79 87 94
-0.174098 -0.845371 2.74116 -0.374758 -0.392391 -0.839992 49 58 64
-0.174077 -0.845243 2.74122 -0.391416 -0.378433 -0.838798 48 57 63
-0.166908 -0.844193 2.7354 0.370032 -0.359077 -0.85682 32 42 48
-0.144387 -0.842149 2.72402 -0.184035 0.932522 -0.3107 53 65 72
-0.164733 -0.84177 2.73608 0.806671 -0.0581723 -0.588131 61 73 81
-0.16463 -0.841812 2.73895 0.86747 -0.0640495 -0.493348 72 85 93
-0.164051 -0.841615 2.74097 0.892511 0.130116 -0.431849 85 98 108
-0.151598 -0.839999 2.73362 -0.576955 0.565906 -0.588959 103 118 127
-0.149301 -0.840546 2.73416 -0.158517 0.905003 -0.394767 87 99 107
-0.14486 -0.840853 2.72907 0.287702 0.932443 -0.218582 42 52 58
-0.187999 -0.842024 2.7446 -0.582183 0.544389 -0.603906 12 18 19
-0.182889 -0.841112 2.74095 -0.420508 0.632413 -0.650559 47 53 57
-0.179851 -0.839735 2.74043 0.684189 0.0637228 -0.726516 66 73 77
-0.171151 -0.837412 2.73304 -0.398909 -0.372438 -0.837951 31 39 43
-0.171124 -0.837084 2.73273 -0.321408 -0.432688 -0.842306 31 39 43
-0.164049 -0.840731 2.74004 0.892006 0.133264 -0.431934 81 94 104
-0.164049 -0.840731 2.74004 0.892006 0.133264 -0.431934 81 94 104
-0.164986 -0.838604 2.73424 0.206131 -0.0382828 -0.977775 49 58 66
-0.163912 -0.840277 2.74002 0.890277 0.183768 -0.416698 83 95 105
-0.163912 -0.840277 2.74002 0.890277 0.183768 -0.416698 83 95 105
-0.144901 -0.838042 2.7348 0.0319247 0.850426 -0.525125 33 43 49
-0.181932 -0.834703 2.74111 -0.302251 0.498657 -0.812395 42 49 52
-0.176958 -0.835943 2.74318 -0.505351 -0.236394 -0.829902 34 42 46
-0.164499 -0.836662 2.73972 0.72871 0.616732 -0.297697 74 85 94
-0.162185 -0.836746 2.74783 0.501395 0.831586 -0.238888 108 123 134
-0.163731 -0.837143 2.73916 0.892449 0.145406 -0.427074 80 92 102
-0.14931 -0.836581 2.73747 -0.125979 0.608776 -0.783276 89 103 110
-0.145033 -0.834807 2.74046 0.223364 0.883008 -0.412802 25 34 38
-0.187721 -0.833003 2.74126 -0.613179 0.433388 -0.660444 13 18 19
-0.181158 -0.833387 2.74151 0.382625 -0.00647667 -0.923881 47 54 57
-0.176994 -0.833727 2.74387 -0.505494 -0.0366635 -0.862051 34 42 45
-0.176035 -0.834611 2.74372 -0.547284 -0.160776 -0.821359 30 38 41
-0.165506 -0.83365 2.74186 0.886918 0.183797 -0.423786 65 77 83
-0.165358 -0.834617 2.74379 0.605973 0.752164 -0.258934 74 86 94
-0.160902 -0.837004 2.75825 -0.281451 0.758063 -0.588325 114 129 140
-0.157223 -0.836842 2.7597 -0.330047 0.858485 -0.392522 103 116 126
-0.149191 -0.832298 2.74302 -0.333125 0.856164 -0.394982 74 86 92
-0.14232 -0.832645 2.74069 -0.213795 0.7986 -0.56261 25 37 40
-0.191845 -0.831028 2.74825 -0.060698 0.467106 -0.882115 12 17 17
-0.187016 -0.829211 2.74287 0.112922 0.412783 -0.903802 19 24 24
-0.18554 -0.831115 2.74222 0.633109 0.242885 -0.734969 25 30 31
-0.183635 -0.830183 2.74326 0.242056 0.321312 -0.915515 40 46 48
-0.179385 -0.829893 2.74343 0.52261 0.342024 -0.78096 48 54 57
-0.178531 -0.830773 2.74324 0.26043 0.449548 -0.854449 45 52 56
-0.174079 -0.829465 2.74025 -0.636279 0.112017 -0.763283 25 32 35
-0.163643 -0.829592 2.74764 0.498278 0.832836 -0.241046 87 103 113
-0.189021 -0.825844 2.74371 0.431036 -0.229025 -0.872786 13 19 19
-0.183031 -0.826955 2.74403 -0.292121 -0.0699601 -0.953819 47 53 54
-0.177511 -0.827478 2.74402 -0.468839 -0.0430285 -0.882235 40 46 49
-0.162544 -0.834854 2.77028 0.0690987 0.959159 -0.274299 114 130 139
-0.148948 -0.829481 2.75832 -0.110118 0.816313 -0.567016 23 34 38
-0.149701 -0.830815 2.75541 -0.301352 0.875773 -0.377105 32 42 46
-0.19117 -0.823083 2.74658 0.234258 -0.136824 -0.962498 12 17 18
-0.18594 -0.821823 2.7444 0.649071 -0.0901738 -0.755365 32 38 39
-0.186363 -0.82178 2.74452 0.712252 -0.110625 -0.693152 30 36 37
-0.180421 -0.822338 2.74437 0.587373 0.0465272 -0.807978 51 57 59
-0.162922 -0.833457 2.77371 0.00129869 0.941429 -0.337208 111 127 137
-0.155989 -0.832014 2.77375 -0.0397269 0.932924 -0.357876 39 52 56
-0.154732 -0.831531 2.77197 -0.232918 0.886591 -0.399633 34 46 50
-0.188454 -0.817858 2.74294 0.493885 0.119737 -0.861244 15 22 22
-0.18206 -0.818438 2.74275 0.482797 0.110222 -0.868768 50 57 59
-0.182368 -0.818021 2.74274 0.580532 0.256982 -0.772621 51 57 59
-0.177163 -0.818642 2.74385 -0.629411 0.0666439 -0.77421 33 40 40
-0.163 -0.831354 2.78206 -0.0259538 0.958206 -0.284901 93 108 117
-0.162538 -0.83166 2.77973 0.172581 0.956968 -0.233297 97 112 121
-0.156715 -0.830806 2.77874 -0.323225 0.860973 -0.392748 34 47 50
-0.190805 -0.814927 2.74516 0.056753 -0.223374 -0.973079 13 19 19
-0.185472 -0.816146 2.74371 0.42222 0.0896825 -0.902046 38 44 46
-0.180263 -0.815717 2.74549 0.556013 0.0650092 -0.828628 48 54 55
-0.17647 -0.816222 2.74314 -0.600163 0.158469 -0.784023 29 35 36
-0.1654 -0.812392 2.73529 -0.616696 0.462926 -0.636699 38 44 45
-0.168879 -0.82274 2.76773 0.639321 0.198059 -0.742995 76 90 98
-0.16577 -0.82621 2.77752 0.892376 0.125538 -0.433481 110 126 136
-0.16244 -0.829277 2.78571 0.0358995 0.949879 -0.310549 100 115 123
-0.156627 -0.826735 2.78501 0.00681244 0.796811 -0.60419 30 42 47
-0.187561 -0.812086 2.74225 -0.0446598 -0.371239 -0.927463 23 29 29
-0.186704 -0.813795 2.7436 -0.00318936 -0.359962 -0.932962 29 36 36
-0.183494 -0.811774 2.74308 0.0546408 -0.119548 -0.991324 52 58 60
-0.181605 -0.812762 2.74421 0.831206 0.162389 -0.531721 52 58 60
-0.173954 -0.812334 2.74043 -0.63434 0.104782 -0.76592 23 29 29
-0.167737 -0.809397 2.73686 -0.479959 0.0152999 -0.877157 30 37 37
-0.165779 -0.824604 2.7848 0.889214 0.128746 -0.439003 117 132 140
-0.162742 -0.824935 2.79055 0.204749 0.69379 -0.690459 100 114 123
-0.162135 -0.825311 2.78762 0.695987 0.391117 -0.602187 103 118 127
-0.157864 -0.827174 2.78722 -0.0369047 0.789737 -0.612335 35 46 52
-0.193759 -0.812219 2.74973 0.26523 -0.0236649 -0.963895 11 15 16
-0.191115 -0.808951 2.74639 -0.426433 0.0514285 -0.903056 13 17 18
-0.181138 -0.808172 2.74489 0.759966 0.199932 -0.618448 56 63 65
-0.175644 -0.809067 2.7428 -0.540251 0.27268 -0.7961 22 28 29
-0.170487 -0.80831 2.73892 -0.617873 0.036365 -0.785437 24 31 32
-0.169025 -0.819665 2.78451 0.394174 0.888437 -0.235175 91 105 115
-0.163336 -0.822967 2.79587 0.329216 0.915471 -0.231366 83 96 105
-0.156631 -0.823391 2.78953 -0.414088 0.72531 -0.54996 31 43 48
-0.197299 -0.808248 2.74806 -0.200899 0.919829 -0.336978 11 17 17
-0.189068 -0.80568 2.74464 -0.639667 0.312401 -0.702305 19 25 26
-0.178954 -0.807676 2.7468 -0.510678 0.0939961 -0.854619 40 46 47
-0.177737 -0.804739 2.7446 -0.345293 -0.23301 -0.909109 32 38 39
-0.172707 -0.804597 2.74277 -0.246864 0.330379 -0.910993 22 28 29
-0.167665 -0.804392 2.74072 0.0644132 0.708955 -0.702306 35 41 42
-0.162792 -0.821748 2.79488 0.405738 0.882918 -0.236288 85 98 107
-0.194025 -0.804096 2.7502 -0.357856 0.380568 -0.852706 10 15 16
-0.186808 -0.80159 2.74635 -0.283148 0.557144 -0.780652 39 46 47
-0.179219 -0.803022 2.74547 -0.180697 -0.141761 -0.973269 38 44 45
-0.167523 -0.800171 2.74191 0.824223 0.237628 -0.513994 36 42 43
-0.170696 -0.815778 2.79594 0.786332 0.186504 -0.588981 100 113 125
-0.170422 -0.815913 2.79099 0.885854 0.232434 -0.401543 93 107 118
-0.163322 -0.82105 2.80291 0.330044 0.915017 -0.23198 92 104 114
-0.156869 -0.820074 2.79992 0.335553 0.910937 -0.239998 29 39 46
-0.196082 -0.800087 2.75507 -0.45887 0.263295 -0.848595 10 14 14
-0.180965 -0.798188 2.7471 0.0238208 0.505398 -0.862557 44 50 51
-0.181478 -0.799247 2.74541 0.233422 0.160679 -0.959008 47 53 55
-0.174664 -0.799633 2.7424 0.134445 -0.252142 -0.958305 24 30 30
-0.169003 -0.815991 2.80537 0.795324 0.295895 -0.529062 118 133 141
-0.167567 -0.81815 2.8048 0.107456 0.80084 -0.589159 117 130 140
-0.163177 -0.818411 2.80756 0.593095 0.656779 -0.465703 93 105 113
-0.156812 -0.81788 2.80604 0.149333 0.806356 -0.572268 27 38 43
-0.195098 -0.798602 2.75329 -0.461069 0.203834 -0.863636 10 14 14
-0.186672 -0.79641 2.7476 0.171559 0.467453 -0.867211 45 51 54
-0.184486 -0.796889 2.74503 0.453754 0.502528 -0.735916 47 53 55
-0.177261 -0.796192 2.74396 -0.492845 0.609561 -0.620919 28 34 35
-0.172057 -0.795827 2.74344 0.348384 -0.260832 -0.900331 25 31 32
-0.169893 -0.814778 2.80593 0.760637 0.4975 -0.417044 115 129 139
-0.170122 -0.8144 2.80605 0.704057 0.604143 -0.373249 114 129 138
-0.167439 -0.814922 2.8086 0.179804 0.90273 -0.39083 118 131 140
-0.163888 -0.815538 2.81435 0.380549 0.893672 -0.237765 95 107 115
-0.156817 -0.81474 2.8106 -0.378548 0.820527 -0.428295 23 34 40
-0.193672 -0.793823 2.75084 -0.509871 0.181255 -0.840939 8 12 13
-0.19226 -0.79336 2.75001 -0.125386 0.27319 -0.953753 11 16 17
-0.189247 -0.79322 2.74965 0.192075 0.236182 -0.952536 34 41 42
-0.18095 -0.794117 2.74922 -0.34301 0.284705 -0.895147 47 54 55
-0.171286 -0.811524 2.80904 0.708684 0.642313 -0.291891 110 125 134
-0.167709 -0.813684 2.81918 0.266871 0.935207 -0.23274 115 127 135
-0.194683 -0.790039 2.75391 -0.615649 0.351116 -0.705474 8 12 12
-0.19159 -0.789653 2.75047 -0.0850478 0.580075 -0.810111 16 21 21
-0.187134 -0.788897 2.74873 -0.296625 0.463619 -0.834908 46 52 53
-0.196285 -0.789432 2.75771 -0.56898 0.568812 -0.593898 9 13 12
-0.191475 -0.785106 2.75169 -0.436742 0.560165 -0.703897 17 22 22
-0.190507 -0.786816 2.75012 -0.556508 0.53343 -0.636986 23 29 29
-0.179754 -0.785916 2.75304 -0.61101 0.0842472 -0.787127 28 34 34
-0.179476 -0.784925 2.75114 0.458488 0.622563 -0.634195 29 35 35
-0.175411 -0.78615 2.7446 0.366816 0.161773 -0.91612 24 28 30
-0.197122 -0.784365 2.76042 -0.615069 0.351176 -0.70595 10 13 12
-0.190473 -0.782362 2.75217 -0.138386 0.504867 -0.852032 22 27 27
-0.18668 -0.783812 2.75123 0.578421 0.382859 -0.720311 46 51 52
-0.183034 -0.7843 2.75531 0.656984 0.615165 -0.435826 39 46 46
-0.178675 -0.781575 2.74825 -0.567119 0.559233 -0.604677 29 36 36
-0.172848 -0.782023 2.7485 0.163842 0.928392 -0.333533 25 29 30
-0.189311 -0.780601 2.75319 0.638331 0.371713 -0.674065 34 40 40
-0.183458 -0.780811 2.76043 0.828748 0.4277 -0.360901 37 43 44
-0.173141 -0.781041 2.75978 0.172387 0.956309 -0.236128 27 31 31
-0.173141 -0.781041 2.75978 0.172387 0.956309 -0.236128 27 31 31
-0.195866 -0.778516 2.75768 -0.591952 0.322373 -0.738694 11 15 14
-0.191804 -0.777198 2.75536 0.492143 0.335818 -0.803132 26 31 32
-0.194416 -0.773933 2.7564 -0.591865 0.504813 -0.628379 12 15 16
-0.18952 -0.775158 2.75659 0.590922 0.368107 -0.71785 44 48 50
-0.186692 -0.773922 2.75795 0.705321 0.539877 -0.459407 54 58 61
-0.185799 -0.775854 2.75787 0.8857 0.203639 -0.417213 53 59 60
-0.184662 -0.774593 2.76131 -0.410519 0.638729 -0.650768 43 49 50
-0.18307 -0.776019 2.7639 0.789817 0.494784 -0.362462 27 32 32
-0.191944 -0.771398 2.75692 0.882815 -0.0260955 -0.468994 26 30 32
-0.189823 -0.77267 2.76131 -0.309877 0.741938 -0.594562 48 52 54
-0.186619 -0.770192 2.76237 0.266466 0.776142 -0.571488 57 62 62
-0.1843 -0.772746 2.76698 0.795004 0.282851 -0.536623 30 35 34
-0.180377 -0.772623 2.76434 0.513532 0.56087 -0.649392 20 24 23
-0.17906 -0.771522 2.76079 -0.132013 0.722373 -0.678786 20 24 24
-0.1847 -0.769837 2.76672 -0.157454 0.330879 -0.930445 38 43 43
-0.182969 -0.771505 2.76801 0.542415 0.0216623 -0.839831 21 26 25
-0.182531 -0.768215 2.76789 0.37949 -0.447914 -0.809543 17 23 24
-0.182056 -0.765906 2.76805 -0.278087 -0.503994 -0.817715 18 23 24
0.0769934 -0.112909 0.670643 0.210966 0.254476 -0.943788 12 14 12
0.0788165 -0.11293 0.671138 0.215245 0.245245 -0.945264 6 9 7
0.0774091 -0.111484 0.67288 0.331973 0.559363 -0.759544 12 13 11
0.0771123 -0.111527 0.67204 0.268472 0.695866 -0.666103 14 15 13
0.0782091 -0.111651 0.673197 0.275966 0.663201 -0.695706 12 13 11
0.078413 -0.111719 0.673097 0.25387 0.715934 -0.650376 11 12 11
0.0760056 -0.110878 0.673836 0.377248 0.388881 -0.840509 13 14 12
0.0789078 -0.110975 0.6736 -0.148337 0.467753 -0.871323 9 10 9
0.07315 -0.11006 0.673139 0.531763 0.233493 -0.814069 14 15 13
0.0728765 -0.109888 0.673093 0.390631 0.31428 -0.865237 15 16 14
0.076042 -0.110645 0.67436 0.432051 0.254719 -0.86513 18 18 16
0.0745554 -0.109716 0.673879 0.433556 0.572387 -0.695991 24 24 23
0.0763982 -0.109636 0.675177 -0.308632 0.353505 -0.883052 13 14 12
0.0760981 -0.109459 0.674884 0.332113 0.557171 -0.761092 17 17 16
0.0761327 -0.109619 0.674771 0.326962 0.568821 -0.754677 17 17 16
0.0774208 -0.10995 0.674044 0.341743 0.532372 -0.774462 7 8 7
0.0776366 -0.109882 0.673988 0.358507 0.474265 -0.80408 6 7 6
0.0729996 -0.108568 0.674142 0.603637 0.512116 -0.611032 17 18 17
0.074181 -0.108459 0.674814 0.135992 0.776707 -0.615006 25 25 24
0.0752931 -0.109139 0.675555 0.0460574 0.474869 -0.87885 25 25 24
0.0760108 -0.109044 0.675161 0.313181 0.596592 -0.738915 16 17 15
0.0803997 -0.108884 0.674292 -0.0155262 0.895134 -0.445527 8 10 8
0.0720256 -0.107689 0.673312 0.80249 0.0231387 -0.596217 16 17 15
0.0732738 -0.107751 0.674569 0.707372 0.381931 -0.594772 21 22 21
0.0745585 -0.108335 0.675283 0.387112 0.650044 -0.653901 26 27 25
0.0760527 -0.108005 0.675872 0.16732 0.756161 -0.632633 11 13 10
0.076262 -0.107926 0.675925 0.134705 0.777797 -0.613911 8 10 8
0.0773627 -0.107948 0.675226 -0.0238601 0.656881 -0.753617 6 8 6
0.0774779 -0.10793 0.675083 0.220747 0.715188 -0.663156 6 8 6
0.0773935 -0.108359 0.674882 0.333154 0.567155 -0.753222 7 8 6
0.0715768 -0.106634 0.673901 0.792339 0.084875 -0.604149 15 18 16
0.0726724 -0.107049 0.674614 0.765029 0.358268 -0.535141 20 22 19
0.079396 -0.10757 0.677377 0.264253 0.664377 -0.699123 8 9 8
0.0793957 -0.107656 0.67706 0.2298 0.70337 -0.672654 8 9 7
0.0797556 -0.10723 0.677604 0.166915 0.581577 -0.796183 10 11 9
0.0808557 -0.107148 0.677311 -0.0375488 0.33063 -0.943013 13 13 12
0.0720303 -0.106451 0.674792 0.611926 0.579611 -0.538143 15 18 15
0.072364 -0.106668 0.67513 0.765218 0.337939 -0.54794 18 20 18
0.0732314 -0.1068 0.675781 0.535612 0.548301 -0.64225 26 26 24
0.0732675 -0.106496 0.675948 0.504964 0.670487 -0.543561 27 27 25
0.0745259 -0.106871 0.676577 0.281324 0.714594 -0.640478 24 25 22
0.0757287 -0.106603 0.676836 0.142622 0.769435 -0.622598 13 13 12
0.0771954 -0.106262 0.675604 0.199529 0.762388 -0.615591 8 10 8
0.07758 -0.106125 0.675976 0.334944 0.798507 -0.500199 6 8 7
0.077958 -0.106445 0.67707 0.772321 0.226258 -0.593572 6 8 6
0.0715844 -0.105464 0.675652 0.45068 0.730373 -0.513266 16 17 16
0.0720002 -0.105186 0.676049 0.628361 0.580083 -0.51833 21 22 20
0.0748793 -0.105503 0.677362 0.364598 0.436688 -0.822418 9 10 8
0.0793092 -0.106089 0.678136 0.369707 0.683425 -0.629481 9 11 10
0.0794955 -0.1062 0.677962 0.389919 0.667321 -0.634544 10 11 11
0.08057 -0.106172 0.677442 -0.118261 0.372505 -0.920464 13 14 12
0.0830828 -0.106148 0.676979 0.0714823 0.290177 -0.9543 9 10 8
0.0734944 -0.105246 0.677392 0.128648 0.282454 -0.950615 25 26 24
0.0747653 -0.105249 0.677403 0.369432 0.410424 -0.83371 9 10 8
0.0762487 -0.10517 0.677767 0.350779 0.484506 -0.801379 5 7 7
0.0764841 -0.104813 0.676672 -0.152343 0.772399 -0.616597 6 7 6
0.0779281 -0.104756 0.678474 0.504721 0.561137 -0.656035 6 7 4
0.0795232 -0.104881 0.679617 0.458792 0.718536 -0.522701 11 12 9
0.0706873 -0.104317 0.677155 0.166271 0.288413 -0.942959 18 19 17
0.0711656 -0.10387 0.676894 0.453151 0.231375 -0.860883 18 20 17
0.0722136 -0.104133 0.67721 0.392265 0.385225 -0.835302 30 31 29
0.074034 -0.103729 0.677902 0.37405 0.38216 -0.845009 14 15 13
0.0738061 -0.104113 0.677853 0.367548 0.419451 -0.830042 17 18 16
0.0752961 -0.103715 0.677729 0.45791 0.261491 -0.849671 8 10 7
0.0792965 -0.104715 0.679504 0.565495 0.668272 -0.48335 11 12 9
0.0756269 -0.103269 0.677617 0.448194 0.16178 -0.879175 8 9 7
0.0778152 -0.103467 0.679588 0.623977 0.60518 -0.494379 7 9 7
0.0791658 -0.10358 0.681705 0.31625 0.569798 -0.758496 12 13 9
0.0699969 -0.102317 0.676377 0.685211 0.435433 -0.583852 17 18 15
0.0698786 -0.102317 0.675089 0.805235 0.16632 -0.569152 15 16 13
0.0701559 -0.102285 0.676143 0.72669 0.457781 -0.512209 17 18 15
0.0715488 -0.102687 0.677879 0.172009 0.359149 -0.917292 31 32 30
0.0717104 -0.102421 0.677766 0.383233 0.40734 -0.828979 30 32 29
0.0728258 -0.102674 0.678068 0.408943 0.299589 -0.861982 20 22 19
0.073328 -0.102393 0.678098 0.397338 0.20209 -0.895144 15 17 14
0.0745813 -0.102446 0.678985 0.569674 0.330711 -0.752397 8 10 7
0.0757888 -0.102357 0.678346 0.772363 0.165361 -0.613279 6 7 4
0.0698554 -0.101216 0.676709 0.489327 0.754165 -0.437943 18 18 16
0.0719583 -0.101527 0.679033 0.775265 0.324601 -0.541847 22 24 21
0.0739976 -0.101273 0.678833 0.401241 0.562127 -0.723201 8 10 7
0.0756568 -0.101903 0.678096 0.665868 0.510253 -0.544299 6 8 5
0.0775356 -0.102429 0.681497 0.537161 0.634964 -0.555229 6 7 4
0.0778155 -0.102337 0.681656 0.560465 0.613612 -0.5562 6 7 4
0.0789966 -0.101804 0.681458 0.770422 0.322687 -0.549839 11 12 10
0.0705365 -0.100862 0.677204 0.0346295 0.840964 -0.539981 24 25 22
0.0722199 -0.101259 0.678925 0.70361 0.316744 -0.636086 19 20 18
0.073629 -0.101277 0.680308 0.617153 0.490294 -0.615414 9 10 7
0.0741003 -0.101088 0.678813 0.290008 0.620047 -0.728997 7 9 6
0.0763601 -0.100974 0.681064 0.632163 0.349184 -0.691694 6 7 3
0.0772025 -0.100842 0.681188 0.530379 0.105835 -0.841128 8 10 6
0.0688902 -0.0997693 0.677949 0.24705 0.587737 -0.77041 15 17 14
0.0708384 -0.0998451 0.678854 0.213758 0.311756 -0.925806 27 27 24
0.0723812 -0.099818 0.679551 0.546413 0.476116 -0.689019 14 15 13
0.0733849 -0.10001 0.680482 0.71299 0.371543 -0.594643 8 9 7
0.0735424 -0.099964 0.680904 0.669234 0.279594 -0.688442 8 9 6
0.075703 -0.10051 0.680968 0.230391 0.578818 -0.782234 4 6 2
0.0765798 -0.100437 0.681171 0.514171 0.21271 -0.830893 6 7 3
0.0775229 -0.100747 0.681235 0.399474 0.119484 -0.908924 10 11 7
0.0782692 -0.100108 0.681122 0.512435 0.515526 -0.686763 12 13 9
0.0737743 -0.0998139 0.6808 0.668737 0.230398 -0.7069 8 8 6
0.0768608 -0.0991423 0.681158 0.361393 0.415813 -0.834563 7 9 6
0.0689834 -0.0983013 0.680058 0.253015 0.666203 -0.701539 18 20 18
0.0713574 -0.0985179 0.680328 0.439903 0.418907 -0.794356 15 17 14
0.0728979 -0.0984865 0.680997 0.618638 0.209741 -0.757163 8 9 9
0.0730907 -0.0983398 0.680953 0.644271 0.180496 -0.743193 8 9 9
0.0726503 -0.0985691 0.681068 0.686357 0.343846 -0.640846 8 10 8
0.0737255 -0.0987599 0.681244 0.531467 0.350498 -0.771164 7 8 8
0.0770048 -0.0988546 0.681196 0.360307 0.459988 -0.811535 8 10 8
0.0783911 -0.0987261 0.6823 0.593894 0.169351 -0.786518 13 14 12
0.0758114 -0.0977725 0.681831 0.385559 0.255001 -0.886746 5 7 5
0.0758834 -0.097463 0.681651 0.396197 0.156689 -0.904697 6 7 6
0.0774254 -0.0976877 0.682023 0.766552 0.190711 -0.61321 12 14 11
0.0690862 -0.0971347 0.680358 0.421344 -0.241162 -0.874248 24 26 24
0.0690793 -0.097134 0.680352 0.401823 -0.255553 -0.879336 24 26 24
0.0707757 -0.0970553 0.68072 0.432686 -0.221544 -0.8739 12 15 12
0.0722506 -0.0967335 0.68007 0.497137 0.0263898 -0.867271 6 8 6
0.0725169 -0.0965426 0.679902 0.586212 -0.0150956 -0.810017 5 7 6
0.077544 -0.0974315 0.682199 0.773394 0.112175 -0.623922 12 14 11
0.0796943 -0.0976363 0.686682 0.779035 -0.099038 -0.619109 7 9 8
0.0791099 -0.0975704 0.685875 0.772056 -0.125544 -0.623032 9 11 9
0.0701004 -0.0954602 0.680278 0.43353 -0.216599 -0.874721 11 14 11
0.0714349 -0.0958108 0.680127 0.421025 -0.455726 -0.784252 6 8 5
0.0765172 -0.0963318 0.682919 0.427456 0.740363 -0.518791 8 10 8
0.076686 -0.0960396 0.682921 0.486811 0.748304 -0.450617 8 10 8
0.0770414 -0.0960675 0.682266 0.794155 0.0602176 -0.604724 9 11 9
0.0781947 -0.0967649 0.683992 0.718658 0.434302 -0.543058 10 13 10
0.0784569 -0.0966052 0.684357 0.703579 0.0201563 -0.710331 10 12 9
0.0724921 -0.0946975 0.679275 0.776892 -0.128791 -0.616321 4 6 4
0.0749227 -0.0951552 0.683699 0.389313 0.20904 -0.897071 6 7 6
0.0780057 -0.0952911 0.684498 0.577168 0.0144346 -0.816498 11 11 9
0.0783289 -0.0954225 0.684266 0.456129 -0.297065 -0.838868 11 11 9
0.079391 -0.0955846 0.684572 0.758057 -0.160387 -0.632159 8 9 7
0.0801007 -0.0954402 0.685337 0.731451 -0.245448 -0.636187 7 7 5
0.0674248 -0.0938531 0.67886 0.71372 0.0874153 -0.694955 20 21 19
0.0691409 -0.0939727 0.680368 0.393309 0.242767 -0.886776 12 13 11
0.0708769 -0.0940901 0.678955 0.437763 -0.339625 -0.832477 8 9 8
0.0740407 -0.0945289 0.683029 0.796039 0.214697 -0.565886 5 7 6
0.0735254 -0.0948207 0.682687 0.780692 0.294479 -0.551182 6 8 7
0.0751544 -0.0948205 0.683936 0.403872 0.0568192 -0.913049 7 8 7
0.0783985 -0.0948716 0.684281 0.382599 -0.451005 -0.806358 10 10 8
0.0805643 -0.0949037 0.685839 0.759958 -0.167576 -0.627998 7 8 6
0.0694577 -0.0934994 0.680257 -0.256209 -0.00689632 -0.966597 9 11 8
0.073922 -0.0935708 0.68319 0.780037 0.292957 -0.552918 5 6 4
0.075555 -0.0935601 0.683833 0.413501 -0.0561904 -0.908768 10 11 9
0.0681984 -0.0924522 0.680279 0.398729 0.197298 -0.895594 17 19 16
0.0720848 -0.0927062 0.681992 -0.01081 0.818569 -0.574307 5 6 4
0.0731365 -0.0928228 0.682222 0.705251 0.488684 -0.513623 4 4 2
0.0727938 -0.0930112 0.681728 0.58312 0.591159 -0.557227 4 5 2
0.0742612 -0.0932161 0.683386 0.751197 0.386117 -0.535366 6 8 5
0.067261 -0.0914873 0.678624 0.804159 -0.0172034 -0.594165 19 20 18
0.0696075 -0.0920077 0.684098 0.0174657 -0.411037 -0.911451 7 9 7
0.0715453 -0.0918096 0.682441 0.415109 -0.0274951 -0.909356 4 5 4
0.0732668 -0.091867 0.682913 0.441632 0.380652 -0.812444 4 4 3
0.0734374 -0.0916201 0.68329 0.63906 0.337928 -0.690947 4 5 3
0.0663552 -0.0905613 0.677232 0.428908 -0.0857977 -0.899264 21 23 21
0.068107 -0.0905069 0.679073 0.803228 -0.0158288 -0.595462 9 11 9
0.0672115 -0.0896022 0.67781 0.793238 -0.00477659 -0.608893 14 17 14
0.0690652 -0.0896641 0.68029 0.800138 -0.0381101 -0.598604 5 7 4
0.0680202 -0.0885744 0.677911 0.592257 0.210401 -0.777794 7 8 6
0.0687615 -0.088565 0.678452 0.805901 0.0771261 -0.587005 4 6 3
0.0656017 -0.087876 0.676445 0.453595 0.0141833 -0.891095 19 21 19
0.0667393 -0.0880352 0.677809 0.427806 -0.0809115 -0.900242 12 14 11
0.068091 -0.0881157 0.678954 0.367219 0.423864 -0.827943 6 8 5
0.0689574 -0.087873 0.678024 0.635427 -0.00493707 -0.772145 4 6 3
0.0651836 -0.086206 0.675642 0.488968 -0.208301 -0.847066 18 20 18
0.0660361 -0.0864124 0.677211 0.446347 -0.301893 -0.842399 10 12 10
0.0658748 -0.0860414 0.678065 0.800249 -0.0528651 -0.597334 11 12 10
0.0673693 -0.0855367 0.67747 0.704141 0.027748 -0.709517 6 7 4
0.0689716 -0.0861413 0.678023 0.614879 0.0761652 -0.784935 6 8 5
0.0644823 -0.0845823 0.674344 0.530554 -0.41313 -0.740159 16 17 16
0.0656008 -0.0849233 0.676212 0.692542 -0.104494 -0.71377 10 11 10
0.0653785 -0.0843505 0.673978 0.556539 -0.531326 -0.638715 12 13 12
0.065763 -0.0846422 0.675883 0.514098 -0.349916 -0.783111 9 10 8
0.0659266 -0.0848242 0.676798 0.609936 -0.0329974 -0.791763 8 9 7
0.0650861 -0.0837557 0.674675 0.743478 -0.254444 -0.618465 12 13 11
0.0652417 -0.0826199 0.672434 0.55659 -0.532553 -0.637648 9 10 9
0.0652268 -0.0830239 0.674761 0.557823 -0.529655 -0.638983 10 11 10
0.0658452 -0.083176 0.676233 0.63662 -0.242335 -0.732113 9 10 9
0.0659642 -0.0830962 0.676858 0.664526 -0.11006 -0.739116 9 10 8
0.0653126 -0.0820738 0.675085 0.748291 -0.240483 -0.618247 7 8 7
1.78788 0.958089 5.40559 -0.905215 -0.00995616 -0.424838 43 51 49
1.78977 0.954127 5.36512 -0.91583 0.0250112 -0.400786 43 50 49
1.79281 0.964847 5.39529 -0.903442 -0.00827083 -0.428631 41 48 48
1.79739 0.963412 5.37124 -0.915878 0.0240977 -0.400733 41 47 48
1.79133 0.979139 5.40402 -0.578074 -0.751057 -0.318974 107 122 130
1.79677 0.970697 5.37852 -0.88308 -0.00113191 -0.469222 41 48 48
1.79645 0.974386 5.37802 -0.477443 -0.814421 -0.329799 40 48 49
1.79786 0.965939 5.33938 -0.788704 -0.153495 -0.595302 41 48 49
1.7941 0.987749 5.40875 -0.852734 0.145936 -0.501545 120 139 151
1.79695 0.975662 5.37524 -0.574829 -0.744902 -0.338663 40 47 49
1.79492 0.976992 5.38108 -0.870535 0.259589 -0.41807 53 62 65
1.80448 0.971705 5.33619 -0.892979 -0.0228047 -0.44952 41 48 48
1.80066 0.966468 5.29956 -0.916475 0.00299331 -0.400082 42 48 48
1.80193 0.982659 5.36947 -0.87446 0.250232 -0.415576 48 58 62
1.80162 0.980059 5.36094 -0.8296 0.0388248 -0.557007 40 47 50
1.80257 0.979698 5.35476 -0.907361 0.0742491 -0.413742 39 45 47
1.80137 0.993659 5.39868 -0.876934 0.237348 -0.417914 117 137 150
1.80233 0.991334 5.36224 -0.47137 -0.821215 -0.321586 107 124 135
1.80683 0.974927 5.29775 -0.924565 0.00290173 -0.381012 39 45 46
1.8061 0.995848 5.37065 -0.83958 0.277892 -0.466779 116 133 146
1.80563 0.996669 5.36866 -0.876365 0.244883 -0.414749 119 137 149
1.80874 0.988327 5.33107 -0.614021 -0.722132 -0.318595 42 51 54
1.80904 0.989034 5.3177 -0.85518 -0.401971 -0.32724 41 49 52
1.8139 0.9832 5.30528 -0.8517 -0.0635391 -0.520164 40 46 46
1.81446 0.984956 5.30286 -0.797162 -0.0740253 -0.59921 40 46 46
1.81329 0.983669 5.29768 -0.918784 0.0224658 -0.394121 40 46 46
1.80758 0.998149 5.33514 -0.553251 -0.770949 -0.315517 108 129 141
1.81306 0.99444 5.30532 -0.559031 -0.767595 -0.313501 44 52 54
1.81289 0.994526 5.30536 -0.568605 -0.761065 -0.312201 45 53 55
1.8184 0.98931 5.29686 -0.856429 -0.0767353 -0.51053 41 48 47
1.81775 1.00063 5.29688 -0.566059 -0.763482 -0.310924 55 65 69
1.82323 0.99537 5.2892 -0.855922 -0.049456 -0.514735 39 46 45
1.82359 0.993924 5.28204 -0.927431 0.0235662 -0.37325 39 46 45
1.82396 0.997076 5.285 -0.923429 0.0327291 -0.382371 38 46 44
1.81718 1.01039 5.31737 -0.555524 -0.77122 -0.310826 118 138 148
1.82258 1.00668 5.28921 -0.584776 -0.742083 -0.327642 70 82 85
1.82569 1.00008 5.26676 -0.897611 -0.0502106 -0.437919 38 44 44
1.82601 0.99856 5.2553 -0.923307 0.0219998 -0.383433 38 45 44
1.81693 1.01071 5.30234 -0.564992 -0.76461 -0.310092 116 136 145
1.82245 1.00793 5.28873 -0.862279 -0.393998 -0.318183 82 96 100
1.82346 1.00786 5.27884 -0.838098 0.0450719 -0.543654 67 79 82
1.82144 1.00913 5.27971 -0.875241 0.249725 -0.414235 91 108 112
1.82397 1.00806 5.2823 -0.884916 0.0730933 -0.459981 67 80 82
1.82522 1.01829 5.29053 -0.825631 -0.470347 -0.311621 119 138 147
1.82831 1.01454 5.26777 -0.875009 0.250145 -0.414472 86 98 104
1.82616 1.01244 5.25413 -0.906353 0.156003 -0.392666 77 88 93
1.83898 1.00533 5.21646 -0.916615 0.00165815 -0.399767 39 46 44
1.83886 1.00652 5.21978 -0.889256 -0.0395033 -0.455701 39 45 44
1.82816 1.01466 5.23594 -0.49116 -0.813586 -0.311192 73 85 89
1.8338 1.0101 5.22818 -0.824095 -0.109087 -0.555849 38 44 44
1.83772 1.01606 5.22063 -0.812665 -0.155425 -0.561622 39 46 44
1.83961 1.01877 5.21153 -0.921686 -0.198176 -0.333499 41 49 49
1.83721 1.00839 5.17878 -0.92283 -0.134045 -0.361133 40 47 44
1.83882 1.00259 5.15981 -0.635046 0.5846 -0.504935 42 48 45
1.83622 1.02513 5.22183 -0.53638 -0.779559 -0.323396 93 109 116
1.84006 1.02586 5.22131 -0.531969 -0.790038 -0.304712 78 93 99
1.84006 1.02586 5.22131 -0.531969 -0.790038 -0.304712 78 93 99
1.83979 1.02031 5.19253 -0.696224 -0.543158 -0.46931 39 46 46
1.84055 1.01401 5.17111 -0.767565 -0.191182 -0.611795 39 45 43
1.84198 1.01101 5.15536 -0.7765 -0.401797 -0.485393 41 48 45
1.84055 1.02728 5.20675 -0.691633 -0.657096 -0.299781 82 96 99
1.8418 1.02478 5.19277 -0.671278 -0.678458 -0.298463 52 61 62
1.84543 1.01961 5.15221 -0.823726 -0.402409 -0.399429 39 45 44
1.84209 1.0119 5.11928 -0.884989 -0.335121 -0.323245 41 48 45
1.84201 1.01186 5.11906 -0.882336 -0.339078 -0.326358 41 48 45
1.84679 1.01325 5.12236 -0.825154 -0.126361 -0.550594 41 48 45
1.83849 1.03517 5.19619 -0.688623 -0.659978 -0.300379 114 131 138
1.84316 1.02931 5.19174 -0.887362 0.223071 -0.40352 79 91 93
1.84289 1.02575 5.16324 -0.843529 0.326932 -0.426115 41 47 48
1.84321 1.02558 5.17379 -0.805539 -0.508976 -0.303398 42 50 50
1.85074 1.02784 5.15489 -0.695906 -0.382599 -0.607728 38 46 43
1.85237 1.02267 5.13282 -0.811126 -0.295476 -0.504745 39 45 44
1.8456 1.0371 5.18821 -0.834702 0.342514 -0.431227 105 119 122
1.84644 1.04164 5.19232 -0.873178 0.244635 -0.421562 114 130 133
1.84573 1.0304 5.16555 -0.809375 0.386026 -0.442601 51 60 60
1.8544 1.02585 5.1388 -0.81672 -0.301309 -0.49212 38 45 44
1.84984 1.04247 5.19329 -0.83728 0.338222 -0.429614 109 124 126
1.85012 1.04263 5.19409 -0.840067 0.332676 -0.428503 109 124 126
1.84759 1.03855 5.16141 -0.835017 0.340801 -0.431974 93 106 106
1.85387 1.03591 5.15221 -0.761259 -0.444898 -0.471752 42 50 50
1.85754 1.03039 5.13237 -0.86975 -0.360591 -0.33691 39 45 43
1.85179 1.04395 5.16632 -0.840194 0.333187 -0.427855 100 113 113
1.85512 1.04505 5.14761 -0.761036 -0.571766 -0.306444 86 97 94
1.85458 1.04541 5.14734 -0.81941 -0.488638 -0.299668 88 99 97
1.85458 1.04541 5.14734 -0.81941 -0.488638 -0.299668 88 99 97
1.85587 1.03814 5.12074 -0.825796 -0.476566 -0.301573 42 49 46
1.85556 1.03848 5.12839 -0.892784 -0.323637 -0.313363 43 50 48
1.85506 1.0374 5.11657 -0.787881 -0.538312 -0.299106 42 49 46
1.85381 1.04554 5.13554 -0.915581 -0.219839 -0.336723 91 101 97
1.85801 1.04638 5.12162 -0.93172 -0.0931896 -0.351017 76 83 80
1.85997 1.04292 5.10371 -0.903546 0.136505 -0.406166 45 51 48
1.86374 1.0587 5.16194 -0.925087 -0.0833636 -0.370491 94 104 101
1.86006 1.05266 5.12419 -0.898904 0.190981 -0.394331 87 94 92
1.86472 1.04235 5.08424 -0.910923 -0.264729 -0.316446 39 45 42
1.86496 1.03813 5.0718 -0.88639 -0.346634 -0.30685 42 48 44
1.86634 1.0587 5.11342 -0.901051 0.184283 -0.392617 81 89 86
1.86598 1.0516 5.0813 -0.719023 -0.62762 -0.298495 53 60 57
1.86765 1.04526 5.0692 -0.643193 -0.446705 -0.621897 38 45 41
1.87255 1.04344 5.05878 -0.894905 -0.308348 -0.322593 38 44 41
1.86208 1.06059 5.11893 -0.874942 0.00523945 -0.484199 88 97 93
1.86757 1.05825 5.10033 -0.686275 -0.667984 -0.287791 76 84 81
1.87493 1.0502 5.05354 -0.656811 -0.591274 -0.467968 39 45 42
1.87762 1.04774 5.0464 -0.911957 -0.262421 -0.315389 40 46 43
1.87347 1.07029 5.11015 -0.72144 -0.629841 -0.287791 85 92 89
1.87347 1.07029 5.11015 -0.72144 -0.629841 -0.287791 85 92 89
1.87365 1.06426 5.0783 -0.615366 -0.733884 -0.287644 76 83 80
1.87579 1.05945 5.05239 -0.621025 -0.726197 -0.2949 46 52 50
1.8776 1.05472 5.03161 -0.89703 -0.310353 -0.314672 37 43 41
1.87775 1.04636 5.00535 -0.899439 -0.303005 -0.314956 39 45 44
1.87469 1.04591 4.99165 -0.910805 -0.244944 -0.332321 38 44 43
1.87632 1.06928 5.07054 -0.834565 0.336739 -0.436014 80 86 84
1.87586 1.06224 5.05374 -0.792699 -0.537371 -0.287856 57 63 61
1.87985 1.04841 4.99296 -0.894683 -0.295518 -0.334979 40 46 44
