ply
format ascii 1.0
comment PCL generated
element vertex 1120
property float x
property float y
property float z
property uchar red
property uchar green
property uchar blue
element camera 0
property float view_px
property float view_py
property float view_pz
property float x_axisx
property float x_axisy
property float x_axisz
property float y_axisx
property float y_axisy
property float y_axisz
property float z_axisx
property float z_axisy
property float z_axisz
property float focal
property float scalex
property float scaley
property float centerx
property float centery
property int viewportx
property int viewporty
property float k1
property float k2
end_header
-56.49976 11.054477 -10.552763 103 81 57
-55.12328 10.703782 -4.1069393 24 24 24
-51.315369 11.62507 -3.2189164 218 195 154
-50.993763 11.379183 -11.91765 27 27 27
-53.142303 1.4040749 -6.4299808 78 108 171
-50.340454 2.9298978 -7.3905373 32 42 55
-50.992054 3.9405618 -9.7089901 24 24 24
-58.508606 10.83014 -5.0279212 156 141 118
-51.572102 2.7880599 -5.7755933 3 9 14
-55.534325 11.44313 -15.098224 177 166 139
-51.608459 2.1390166 -9.2058258 158 177 207
-57.727116 11.146016 -13.54019 183 171 150
-51.634315 10.830112 -11.075723 27 30 32
-62.117302 10.561018 -1.3779906 189 178 163
-50.976986 6.5353661 -8.6000824 173 169 167
-52.538746 5.0065327 -5.6961703 121 112 105
-48.975716 11.574715 -7.3326969 24 25 28
-62.226013 10.549054 -1.5176032 183 171 157
-47.81831 12.256939 -6.6383929 165 154 136
-47.81831 12.256939 -6.6383929 165 154 136
-61.104412 10.58304 0.25528932 185 178 160
-51.229649 11.797799 -4.6309538 161 149 125
-53.986267 4.5606656 -8.94417 15 14 12
-50.309467 -0.43087962 -6.4737687 154 161 165
-54.01405 2.0567188 -6.3570662 114 120 139
-58.534836 11.017852 -12.818064 186 179 160
-60.206932 10.624253 -3.1885402 204 192 170
-53.132584 7.663888 -6.3047891 14 9 7
-48.506294 12.260282 -6.8836246 47 56 61
-56.771473 11.277298 -13.672995 199 187 171
-50.463104 2.6199439 -7.3526921 47 59 82
-53.542957 8.2418814 -6.2084122 131 127 125
-52.893242 11.525126 -3.9799178 165 152 132
-49.227688 11.955757 -5.6334181 156 141 118
-50.454697 1.5048087 -7.0796018 54 67 84
-56.841049 11.007984 -2.5635016 181 173 162
-49.845695 11.948946 -12.472723 157 141 114
-57.945518 11.088668 -12.483609 177 168 153
-50.037025 12.068082 -14.56131 160 146 121
-53.124432 3.1923552 -10.657619 98 99 127
-50.210808 2.8987796 -7.4898157 37 50 69
-51.194351 5.7791924 -8.3549747 153 155 168
-59.029911 10.930344 -14.827241 174 158 140
-50.911369 2.0597291 -5.2646742 44 80 187
-50.669056 1.3069046 -6.3535051 115 123 132
-52.486649 2.229619 -8.605175 40 40 42
-48.015385 12.169107 -9.6446018 188 170 147
-52.836132 1.4755037 -5.7257662 74 110 199
-50.790485 1.1954342 -7.0952692 13 18 22
-54.38261 -0.31509429 -4.5066037 122 147 152
-53.382656 2.3794694 -5.2225423 22 23 27
-49.698017 11.98917 -11.512383 162 142 107
-49.65575 11.942931 -11.520655 162 142 107
-49.99123 4.8377433 -7.3683138 17 17 17
-52.237064 10.830087 -9.4193611 38 39 41
-52.09803 2.2912309 -8.1634312 20 23 29
-50.468418 12.017489 -8.7188292 34 30 27
-56.357025 10.397051 -3.6130319 27 30 35
-51.249504 1.1971316 -6.0871191 113 130 149
-55.173237 1.9780074 -12.486484 148 139 129
-50.291256 2.9977944 -7.4189334 72 86 112
-50.291256 2.9977944 -7.4189334 72 86 112
-58.096035 11.137188 -12.513789 169 157 141
-50.683239 5.6024427 -6.9798384 18 16 14
-53.683945 1.4164245 -7.3845077 20 22 21
-49.83445 11.57719 -6.329329 27 27 29
-50.405933 -0.41176149 -6.5171871 223 236 253
-49.000534 12.025852 -10.069582 126 111 90
-49.038147 11.896493 -9.6936779 139 149 161
-57.43919 10.694568 -2.8703463 182 162 127
-50.69717 3.0096545 -6.8131509 16 19 21
-50.50182 3.6323245 -5.3415847 159 183 214
-56.957321 11.179291 -13.770488 199 188 168
-51.607796 1.8895925 -9.1748848 15 15 16
-53.070782 0.6999976 -9.096941 123 142 166
-50.685047 2.1794279 -6.4193916 87 93 102
-54.712719 10.653755 -6.711905 3 3 3
-53.784386 1.0828617 -6.8811746 105 36 29
-58.651405 10.80709 -5.4943891 201 197 186
-53.892948 2.6463935 -10.986172 60 96 187
-54.864082 2.3990903 -5.028234 28 30 32
-52.57959 10.841709 -6.735796 32 32 34
-57.125938 11.449066 -13.306182 168 153 134
-55.973717 11.360413 -12.081934 177 161 136
-51.165665 5.9176288 -8.38873 150 157 173
-52.755955 1.2417984 -8.4434748 147 163 189
-50.071465 11.745939 -5.6940451 185 173 151
-61.088154 10.331549 -11.728349 172 155 127
-53.206806 7.8176627 -6.1797347 15 15 15
-55.737217 10.391184 -8.5999098 31 31 31
-62.16991 10.599408 -10.634914 177 165 152
-56.227146 11.248631 -15.140231 187 176 158
-58.143246 11.056947 -12.523522 156 144 118
-61.73283 10.575973 -11.091136 177 164 148
-60.853401 10.734119 -13.47767 206 192 175
-57.177032 11.364978 -13.771557 180 168 152
-55.489326 3.8576641 -7.6596527 113 98 86
-51.262009 3.3726099 -9.2535639 14 17 16
-57.930805 11.078339 -12.908475 172 161 143
-56.50985 11.171938 -14.654421 192 181 163
-50.359818 2.9851236 -7.0984001 23 24 26
-51.092339 3.4184167 -6.6184096 61 62 64
-53.945198 11.585999 -13.01061 186 172 147
-58.603252 10.983883 -13.035728 196 186 174
-51.341808 10.847614 -5.7746186 40 41 43
-55.955524 11.166515 -14.854809 196 187 172
-51.176651 5.8741202 -8.6284103 50 50 50
-53.727749 10.685451 -7.9910212 23 23 23
-50.760773 11.037917 -8.8633585 36 36 36
-52.00037 3.5225906 -8.3311243 48 48 50
-55.667892 3.2793612 -7.0988712 179 163 142
-52.039063 -0.5287196 -9.8032417 218 231 247
-61.628147 10.822838 -11.074959 181 172 156
-51.358727 4.7383761 -9.7351503 36 39 44
-52.955494 6.5952444 -6.5482235 60 56 56
-53.913826 11.805031 -15.025591 185 172 153
-52.361362 2.1415136 -9.8579655 96 94 101
-53.646198 2.6445234 -11.129774 49 79 180
-59.623981 11.324012 -12.410863 197 189 178
-59.037193 10.816643 -9.8089027 204 196 185
-50.594513 2.4098978 -7.0315914 32 32 32
-51.022968 3.9171271 -4.8249035 122 124 136
-52.003853 1.7682081 -8.857585 156 173 196
-50.315418 -0.28897509 -6.4572387 130 142 161
-52.288372 1.6311725 -9.9027109 172 184 206
-52.288372 1.6311725 -9.9027109 172 184 206
-50.856842 2.3378174 -5.0327578 186 180 164
-52.412983 1.8266306 -9.898592 124 123 131
-52.250462 2.0956316 -9.7112036 32 37 42
-53.380627 2.1501794 -5.5718312 10 15 45
-48.534786 12.120152 -11.753212 160 148 122
-61.084412 10.365989 -11.535662 146 114 73
-50.040146 12.036004 -13.610844 188 173 149
-60.435982 10.63098 -9.2184277 201 185 162
-51.034199 6.4354062 -8.5690794 167 172 185
-56.2411 11.063437 -1.9148585 198 194 183
-55.235023 11.091886 -1.4741626 195 188 170
-54.974701 11.490096 -14.455872 153 140 123
-72.279053 9.2982121 -13.381113 165 154 132
-54.79229 11.584278 -14.508197 156 147 130
-51.951542 11.734749 -12.620348 192 176 151
-55.11372 11.547106 -14.440503 169 161 150
-48.953926 11.971543 -9.8889561 82 76 74
-50.678921 1.909191 -6.9684992 9 9 9
-51.738228 2.6407361 -8.9868193 26 29 33
-51.725101 11.774424 -12.41838 181 165 145
-49.767433 11.568475 -9.8213329 28 27 28
-54.132824 1.8621185 -9.0763092 11 15 35
-54.263683 11.588944 -14.52129 200 196 186
-52.246426 1.5505409 -9.8745937 14 17 25
-54.813259 11.55215 -15.513863 153 148 129
-47.602673 12.132328 -10.239697 157 143 114
-50.329708 10.630017 -8.9077473 26 29 34
-51.176651 5.8741202 -8.6284103 50 50 50
-54.035908 11.097053 -7.8866057 4 4 4
-51.748013 2.6405499 -8.9888391 26 29 33
-51.344074 11.214763 -11.691459 20 21 23
-52.656643 10.973975 -10.953539 34 35 37
-52.960609 10.785376 -7.8092718 17 17 17
-48.444904 12.244649 -11.679054 166 146 119
-48.663097 11.734558 -7.0575442 72 66 70
-49.492378 11.011448 -7.7293291 26 32 35
-52.110783 1.2550604 -4.8817496 205 223 245
-54.594284 11.588177 -14.603491 163 157 143
-51.599823 10.950351 -8.1905365 24 27 28
-49.048191 11.595967 -7.1296711 26 31 35
-54.814705 4.6214442 -5.4771318 79 77 80
-52.77454 10.947703 -9.2855024 22 24 25
-55.003124 11.730551 -14.362485 149 138 120
-51.61055 2.0104916 -7.4466472 11 11 11
-54.233913 10.747286 -4.6913137 28 28 28
-50.595352 0.16155303 -6.6178317 80 83 92
-54.598148 11.930792 -14.793133 196 193 186
-52.240711 11.07428 -6.0643258 23 25 25
-55.809422 11.257477 -2.5511837 181 176 157
-54.598148 11.930792 -14.793133 196 193 186
-55.320717 11.480996 -14.141164 163 152 130
-51.907688 11.914262 -13.316862 175 161 135
-53.974899 3.9798152 -6.7714257 27 36 43
-56.282211 11.277341 -14.394579 167 154 138
-63.672215 10.42032 -8.0745955 182 164 140
-51.285957 11.124161 -11.123235 22 23 25
-55.207256 8.9683456 -7.3862715 23 23 23
-54.813896 11.642283 -15.074321 159 152 144
-54.312851 1.2863637 -11.042838 168 179 197
-55.068829 11.144376 -1.2106069 194 183 162
-56.120762 11.328438 -17.678791 197 186 166
-53.865398 1.6920482 -6.9114437 58 65 82
-52.296677 1.5834305 -9.5367203 25 25 25
-53.126186 3.289227 -11.102831 222 253 255
-53.848995 3.7424369 -9.9268827 39 38 44
-50.616722 1.7990992 -6.4180055 75 89 104
-57.173897 10.973025 -9.8915606 150 128 105
-54.157341 7.0686841 -6.7802973 66 61 48
-70.694389 9.34834 -14.431704 199 186 169
-56.925529 11.320385 -13.17428 185 170 150
-55.204571 11.298522 -11.491339 148 129 99
-53.758011 7.5119371 -7.7302299 13 13 13
-58.497318 10.988512 -12.820251 194 182 160
-51.661488 4.6715779 -10.244109 32 32 34
-53.960701 11.634985 -14.472682 205 193 177
-50.567455 1.7538861 -6.5494962 11 12 13
-57.149773 10.98052 -1.6844087 199 186 167
-60.457268 10.59146 -6.0405836 180 160 133
-46.722794 10.514582 -7.6778131 52 55 62
-54.316284 11.332328 -2.3686812 165 150 131
-55.38023 10.570759 -4.0069213 31 32 34
-50.574329 11.795545 -2.7780523 200 189 171
-53.102032 11.673133 -13.045596 162 145 117
-53.910988 11.425014 -3.5964458 161 153 132
-48.977283 12.048468 -5.533268 190 178 154
-53.81871 11.439921 -3.6380045 152 141 121
-50.572594 11.82451 -3.8352027 194 179 159
-53.175705 2.845335 -10.671849 35 64 160
-49.644386 11.359511 -9.8385963 13 13 15
-52.912354 11.570354 -4.3264503 132 115 96
-50.49757 1.8185278 -6.6081696 205 211 225
-54.699093 11.227334 -1.4564714 165 150 126
-51.340687 4.1871085 -9.6938095 6 6 6
-51.932354 11.502428 -4.8844147 27 28 30
-53.942963 5.5289874 -4.1633501 159 65 37
-59.603802 10.648261 -5.4396987 174 167 154
-52.672676 10.759419 -7.4972086 18 18 18
-55.301468 11.448369 -13.955899 202 196 182
-51.159058 3.8767345 -9.7798395 22 23 25
-54.157902 11.305192 -1.2995994 170 155 131
-52.205303 11.707782 -4.0649309 155 143 115
-50.301926 2.9878056 -7.2954221 30 37 48
-50.330929 11.985741 -4.9916291 173 159 130
-50.30093 4.7976217 -7.4609737 24 25 29
-51.407242 5.5651269 -6.6191721 180 168 149
-50.230087 3.3708177 -7.4103374 162 178 203
-50.662067 2.9418454 -5.2077012 3 7 28
-50.607361 1.6139097 -7.0415778 8 11 16
-50.320934 13.541079 -6.1746883 41 42 47
-55.716209 10.50541 -3.8236275 33 35 38
-50.505806 2.269752 -6.9724426 107 129 153
-51.720947 4.3743191 -4.4710031 17 27 59
-60.814182 10.567739 -4.3006101 185 177 158
-49.048367 11.935454 -5.7304873 170 158 138
-60.144192 10.83215 -7.1286426 177 168 153
-50.385044 2.7709577 -7.3074484 42 54 78
-49.996567 4.0766039 -7.5607848 29 29 29
-56.449661 11.278969 -13.575483 170 157 139
-50.385044 2.7709577 -7.3074484 42 54 78
-49.465691 11.99958 -10.396612 39 39 40
-51.64222 3.572083 -8.3047161 108 115 133
-55.07859 11.329353 -11.571754 156 137 105
-53.257515 8.5575638 -6.5507798 74 19 18
-53.260315 0.63358432 -9.8125143 157 160 163
-50.211212 3.4063835 -7.4989448 140 155 178
-51.088505 6.5409594 -8.5882797 97 89 86
-55.429192 10.567137 -4.4586935 33 33 33
-55.35442 11.334811 -14.350667 196 194 181
-52.081882 2.0283096 -8.6947403 12 12 12
-66.824417 10.289889 -7.8052483 83 68 75
-52.069416 11.578986 -12.604544 206 192 165
-53.611 6.32792 -8.3572483 71 63 61
-50.23246 3.2927954 -7.3998728 131 147 173
-50.669868 1.9840533 -6.9927859 128 141 160
-52.177792 1.1356691 -5.1312146 220 246 255
-51.69656 1.7058022 -7.919692 100 99 105
-52.334015 5.2994876 -9.6619864 77 56 63
-63.667137 10.285752 1.9700655 192 181 161
-65.696114 10.49437 -4.3962889 80 63 69
-51.59053 3.2610836 -5.2927432 7 10 16
-56.941322 11.233736 -13.612501 200 194 180
-54.64217 11.582276 -14.491997 164 150 123
-52.156254 1.2692323 -4.8891535 223 244 255
-48.3979 12.263769 -12.207396 195 180 159
-56.941322 11.233736 -13.612501 200 194 180
-50.127644 4.7468653 -7.4289122 19 20 22
-52.23769 2.3078432 -9.7166014 19 19 19
-53.711884 10.849175 -10.265999 17 17 17
-61.341278 10.84637 -11.073829 214 210 201
-56.815521 10.687935 -3.6339538 21 21 21
-51.128273 11.765277 -4.0929875 187 175 163
-53.659542 2.8489423 -10.937579 8 12 49
-60.931118 10.485578 2.9799743 61 47 52
-50.588326 2.8577189 -5.06671 36 64 149
-50.75877 2.1867714 -7.69911 73 93 119
-50.680756 2.7810838 -5.1162705 38 63 151
-59.353508 10.769649 2.4476113 157 141 121
-52.837437 7.723063 -7.2749491 92 77 74
-49.461983 11.736134 -10.233459 10 10 10
-53.094963 11.536582 -3.6975117 134 118 90
-52.929226 11.537408 -3.7780037 141 125 92
-62.34655 10.398211 -7.5445638 191 188 177
-53.510559 3.3653569 -10.835348 213 240 255
-50.650333 2.6635833 -4.746067 15 34 96
-56.449661 11.278969 -13.575483 170 157 139
-61.423347 10.906293 -11.485638 210 207 198
-47.732895 12.228208 -7.1354489 178 170 156
-64.079613 10.545119 -10.164242 208 205 196
-50.495464 3.036598 -5.5304885 7 9 21
-53.692677 1.2162968 -7.510901 184 189 198
-53.971321 2.5086439 -10.491252 6 8 20
-58.18372 11.004849 -9.3705492 154 134 109
-58.51466 10.747782 -2.4887884 152 135 109
-59.756638 10.643955 -5.8303514 210 203 185
-51.164566 5.4065318 -8.3760824 120 121 132
-64.066147 10.53431 -10.171948 208 205 196
-52.941799 2.716006 -9.6870909 42 50 58
-52.941799 2.716006 -9.6870909 42 50 58
-50.744987 11.818274 -4.1935487 197 182 166
-58.548233 11.16713 -13.233739 158 147 126
-53.376614 2.3108585 -5.3625102 118 132 158
-52.692329 10.745777 -10.233031 36 36 36
-52.929226 11.537408 -3.7780037 141 125 92
-52.287834 1.8469945 -8.3349571 6 6 6
-50.085258 11.519237 -10.141246 29 30 32
-56.276188 11.091743 -1.1805825 191 178 161
-51.683949 11.395931 -8.7158222 35 36 39
-51.058193 6.4844322 -8.5842333 79 79 86
-50.764782 3.0154624 -6.7522798 32 34 37
-61.69466 10.413292 -4.0680451 166 151 131
-58.629715 11.017187 -12.151281 178 168 156
-51.998001 0.83779401 -6.3246088 12 21 28
-53.097137 11.53513 -3.6979377 134 118 90
-51.664017 1.590134 -7.9192038 161 200 221
-51.021511 3.1802154 -4.8955431 30 37 53
-50.663342 2.4392204 -7.5656857 42 47 49
-50.218288 11.865938 -5.1760082 187 170 142
-50.698608 3.0010149 -5.0118876 54 66 117
-49.880592 11.778973 -5.3491669 195 178 158
-55.411613 11.124213 -1.4308342 184 174 158
-51.427502 2.2665086 -4.303288 174 78 89
-50.309124 4.4206839 -7.130518 11 11 11
-53.863209 7.1037273 -5.8711882 131 127 121
-51.424118 11.776406 -4.1783671 170 153 126
-51.27013 3.2930884 -9.3829927 31 38 51
-50.198494 12.004362 -11.568608 43 47 50
-58.552246 10.243838 -7.7918448 47 47 48
-51.300858 3.3542559 -5.3785219 58 90 165
-50.391651 11.869539 -3.8840239 154 142 120
-53.208847 5.5648088 -6.5255895 93 105 129
-53.287212 2.7796857 -5.1902003 12 14 35
-65.543358 10.349139 -7.8573098 57 48 51
-50.215672 3.3983946 -7.49895 129 147 169
-51.16851 3.484304 -9.9073467 7 8 10
-51.035683 11.650774 -1.470497 190 179 161
-52.540718 1.0873438 -7.4106755 23 49 126
-53.247154 7.0304599 -7.0991735 11 11 11
-51.238758 6.046092 -8.4355049 145 151 170
-50.202297 4.6183691 -7.7208533 35 38 43
-64.384178 10.304546 -9.0205736 70 59 64
-52.579731 10.923564 -7.7806792 36 37 39
-52.131107 10.842744 -9.4183102 47 48 50
-53.384792 1.413368 -6.9201646 40 43 44
-50.351036 2.9158797 -7.2867904 42 52 66
-51.959389 1.8264725 -5.7239909 39 39 47
-53.770382 11.3661 -1.4994059 177 164 142
-52.147919 1.3898634 -4.838695 12 13 13
-55.706493 11.177975 -15.063505 197 193 178
-48.829758 11.655808 -7.8596687 18 20 21
-49.506927 11.43163 -7.2749953 42 43 47
-56.983624 10.990416 1.2404709 200 188 164
-55.994213 11.240568 -15.426039 158 144 119
-51.135662 3.5661316 -9.6263304 26 27 29
-53.612915 11.488883 -2.220597 171 159 137
-54.770145 10.923141 -3.8813789 22 23 25
-55.252804 3.0921872 -8.0910406 98 78 68
-52.108738 11.608103 -1.0866073 198 190 167
-57.138027 11.208192 -13.336954 162 148 129
-51.643276 5.4281673 -10.324428 188 172 147
-56.032581 11.399589 -13.819582 172 155 127
-47.987961 12.17897 -8.6403885 174 158 132
-52.353237 11.330809 -8.3743134 30 31 33
-48.897732 12.00357 -5.8499818 173 154 129
-59.342426 10.73982 -0.077930093 191 176 155
-51.856506 11.104472 -11.009031 37 41 44
-57.146175 10.06154 -8.9063148 38 38 38
-54.181396 2.9019985 -4.8118162 99 89 91
-58.128941 10.864716 -3.6180182 174 158 132
-50.691772 2.7236705 -5.1440468 28 57 147
-59.319515 10.737676 -1.7740865 162 147 128
-58.784695 10.963251 -12.921871 185 173 152
-54.718334 2.6178875 -4.6389914 102 101 98
-51.432972 3.2496452 -5.255137 14 16 32
-53.530243 7.7754793 -6.1224494 74 75 79
-48.777729 12.156105 -6.2447119 202 186 170
-50.365047 3.0172331 -7.3945055 46 64 87
-52.179157 11.053174 -6.0796304 19 19 19
-55.103577 5.9512396 -9.1013451 22 18 17
-54.218018 5.7361236 -5.7847624 47 48 52
-55.807472 11.462478 -13.719455 194 181 162
-57.08128 10.94938 -11.129618 164 148 122
-53.721684 1.7934682 -10.751205 193 189 171
-49.068836 11.621872 -7.0951624 22 23 27
-47.00975 12.346946 -5.2353063 168 154 128
-50.728275 2.9893789 -3.7409785 157 84 89
-56.339531 11.408973 -13.531307 189 179 165
-50.162014 11.925674 -5.1825314 153 141 114
-51.967091 1.1768774 -5.1448736 171 196 216
-51.492432 11.550272 -7.8748965 14 14 14
-59.184143 10.988666 -14.741214 172 159 142
-55.127159 4.9222612 -5.5619855 82 85 90
-51.931713 1.876551 -5.7226567 10 14 25
-53.379223 0.52952486 -9.0913849 200 226 249
-51.321476 1.1653498 -5.6010308 211 236 254
-59.440689 10.745727 -4.6340337 172 155 133
-52.047707 11.356578 -7.6327534 17 17 17
-52.788754 11.596738 -3.0718617 155 136 102
-60.11441 10.700845 -4.9955115 200 180 153
-51.628952 11.727086 -4.1704712 170 162 143
-50.371094 2.7947068 -7.366786 189 207 229
-49.489403 12.043674 -4.4595356 169 151 122
-51.380417 1.9034858 -6.0810633 9 12 13
-50.32016 11.868876 -3.5623739 175 163 141
-49.515644 12.016569 -3.3227592 164 147 121
-50.200787 3.6829391 -7.7901912 73 82 98
-51.74984 1.8186096 -8.1573229 98 100 107
-50.234722 3.5276966 -7.4631157 161 181 208
-51.711567 4.5693445 -10.299914 26 24 24
-49.885796 11.689231 -3.930943 156 142 116
-51.553925 3.6105273 -10.041147 73 81 90
-56.521191 11.253345 -15.115047 191 179 165
-52.046829 11.008189 -8.1396809 8 8 8
-53.509521 1.9542329 -10.522443 10 12 37
-50.526817 2.5767341 -7.2280703 40 50 64
-48.959648 12.153016 -5.7136273 171 157 130
-62.566257 10.516517 -12.837049 178 165 147
-48.767895 12.140112 -5.4068317 166 151 126
-49.054234 12.083296 -5.2578287 199 187 168
-50.811913 11.314384 -8.0409937 21 22 24
-49.215786 12.138613 -5.2011194 198 181 159
-55.58638 11.394276 -14.186602 207 199 188
-53.883617 11.477344 -3.8448341 146 139 120
-52.454281 11.588855 -3.2704687 168 152 129
-58.538364 11.023561 -12.792318 187 179 166
-52.545525 1.7147743 -8.3224592 52 60 70
-51.048672 1.937494 -5.1910295 146 155 173
-53.871265 7.5748205 -8.5904531 11 10 9
-51.781574 11.119916 -6.5276079 33 34 36
-57.148838 10.252413 -5.1373982 23 24 26
-57.694386 10.924459 -1.0628361 176 161 142
-52.273743 2.8799629 -8.2985811 10 9 10
-49.51778 12.098357 -9.6871052 23 23 21
-53.552982 7.7567601 -6.1245999 31 27 28
-53.39185 6.5532804 -5.9588766 86 77 72
-50.95623 11.760989 -2.9113669 160 147 118
-49.418552 12.143924 -5.6310649 152 131 111
-48.909111 11.9554 -5.2351518 176 163 146
-50.001377 11.910012 -3.3471644 190 173 149
-50.001377 11.910012 -3.3471644 190 173 149
-52.986145 11.474067 -1.8720813 169 151 131
-50.911724 2.1490371 -6.3404665 53 55 69
-51.099873 11.686576 -2.0412915 146 142 122
-60.427006 10.871568 -12.778654 180 164 148
-56.398525 11.257672 -16.148085 184 170 152
-50.702652 2.6367671 -4.914228 185 175 163
-51.595684 11.725162 -4.2485642 168 155 133
-51.241116 2.3141921 -5.9345903 16 36 112
-51.311447 1.2307838 -5.5656366 141 154 179
-58.845852 10.7704 -5.3536243 194 174 147
-49.094349 12.077377 -5.0708652 190 175 152
-20.481359 -17.620338 19.768629 29 45 68
-52.843945 11.542762 -3.8186185 146 130 107
-50.37125 12.339364 -16.727654 154 140 114
-56.397984 11.237086 -16.118744 184 170 152
-57.115677 10.961636 -2.272552 130 119 97
-57.907562 10.754913 -1.1676863 177 163 138
-51.732559 11.676929 -3.4843225 167 155 135
-55.510262 11.18429 -1.6393985 161 141 117
-49.30418 11.446708 -9.931119 32 30 30
-52.467426 11.558652 -3.2491543 157 142 121
-48.796143 12.157719 -6.4556112 182 171 154
-50.260006 3.0960286 -5.1311612 29 50 127
-52.2472 1.6613585 -4.4682136 131 134 140
-52.844631 11.514125 -4.3272905 119 106 89
-52.439224 11.482719 -3.1711931 153 139 116
-54.033672 2.7224033 -4.8622098 109 112 129
-58.968388 11.007983 -12.601068 180 167 150
-53.332779 7.6217413 -6.2278066 16 16 14
-50.53286 11.742069 -1.8901609 167 151 135
-50.646961 11.703333 -2.0021236 193 182 162
-49.648312 11.971183 -4.9558811 158 142 119
-51.618553 11.647722 -1.7114742 197 180 165
-50.444599 -0.17953071 -6.6118746 129 131 138
-49.804134 11.564738 -10.032657 42 45 50
-49.759548 11.937443 -2.6603472 190 177 159
-49.894611 11.616196 -6.354054 27 27 27
-50.439381 4.8831735 -7.3838382 17 17 17
-48.736996 12.365298 -17.126783 188 173 156
-53.593578 2.0928578 -10.770962 34 57 135
-53.656582 2.6044302 -10.976699 47 80 184
-50.232555 11.909707 -5.0747113 188 173 150
-49.263447 11.93309 -2.9852345 161 146 123
-50.693382 10.994237 -11.838999 53 50 50
-48.81329 11.49115 -7.6524124 44 49 53
-60.500488 10.550812 -2.6277623 175 159 134
-50.649532 5.5666971 -7.0387449 155 147 128
-66.837173 10.014547 -2.0361505 169 154 131
-55.630047 8.8645115 -6.9322238 138 120 98
-61.395123 10.459186 -3.0405569 199 185 159
-48.752865 12.003227 -3.1239805 167 147 122
-52.529388 11.583263 -4.4032192 147 135 111
-49.601395 11.969075 -3.7400873 177 162 141
-54.710148 10.678998 -4.1725025 25 25 25
-50.445751 11.852965 -3.6329525 179 168 146
-50.615654 3.0760109 -3.7955048 108 72 68
-48.022121 12.213747 -10.325762 170 156 129
-54.831551 11.64674 -14.335279 196 185 167
-48.925304 11.27701 -10.761065 53 56 63
-51.935638 11.009659 -7.9841514 34 35 38
-50.781387 11.716151 -1.5273436 181 174 158
-51.430737 11.799585 -12.671211 178 166 142
-54.97821 4.6343637 -5.4918098 116 113 119
-51.059956 1.8690647 -7.1211052 24 25 29
-48.893364 11.97018 -10.55685 140 128 106
-50.134014 3.7267973 -7.4358716 113 130 150
-51.416904 11.612679 -2.3110709 180 178 163
-60.184605 10.742631 -5.7074313 160 146 124
-51.531918 1.5527152 -5.8257451 10 13 28
-53.875671 5.2741742 -4.8895755 101 93 85
-51.91399 1.3021258 -5.0167952 19 19 23
-48.987621 12.048534 -4.7641964 168 153 130
-50.149887 4.9383121 -7.2068806 26 26 26
-54.824127 11.344068 -11.667859 159 143 121
-49.676868 11.919145 -11.107331 177 159 127
-59.614925 10.726499 -2.9145019 192 181 161
-51.89629 2.4632399 -7.6444478 18 30 41
-50.809757 11.085473 -5.9354839 32 42 54
-48.548512 12.176168 -6.0486808 137 119 95
-49.085739 11.933644 -9.5934391 27 30 35
-51.51944 11.745237 -3.7316921 169 156 136
-59.803066 10.710398 -8.5275526 169 156 142
-50.605171 11.822733 -3.3646815 167 155 133
-53.648315 6.5193286 -8.2104282 83 83 87
-60.58889 10.880182 -11.304342 56 40 40
-49.373646 11.311745 -7.2754502 34 35 39
-50.902351 11.626972 -4.8897471 189 174 153
-49.511143 11.478807 -7.0718846 22 23 25
-49.364365 11.859966 -1.6956313 181 170 152
-50.757347 11.824405 -3.6743386 156 148 129
-50.713676 11.033003 -9.4995556 39 40 44
-60.907516 10.329834 -12.198103 193 177 144
-53.850056 11.335899 -12.644886 182 167 143
-52.508301 11.068144 -10.457627 22 24 23
-49.587967 11.997108 -10.114679 34 35 37
-50.530052 3.3966823 -5.0334744 184 199 219
-54.068089 10.956173 -5.0926914 27 28 28
-55.631165 11.445317 -15.300722 171 155 125
-55.323338 11.37127 -14.339132 178 168 158
-52.112373 11.31639 -10.489027 24 25 27
-58.927341 11.045134 -12.905468 186 173 154
-53.661861 11.493926 -14.605853 166 151 128
-53.419033 11.50118 -2.7868788 161 148 130
-52.07196 -0.46448374 -9.8441677 133 151 169
-59.716949 10.842893 -11.697628 203 191 175
-50.168053 12.015893 -14.054085 164 148 123
-50.983849 3.9603591 -9.5151291 23 24 26
-50.627747 2.4577816 -4.4914756 196 218 242
-52.091858 2.0816507 -8.7595749 7 7 7
-49.403164 11.149692 -6.860858 41 42 47
-50.609081 2.1781356 -6.5965343 108 107 112
-54.267223 3.8519831 -8.4326668 11 11 11
-50.98587 2.275821 -5.9936781 14 41 109
-52.713558 11.505228 -2.9677536 155 149 133
-51.024025 2.3186994 -5.991807 57 89 171
-51.262985 11.820295 -4.6342497 140 128 106
-48.373234 12.245146 -8.8039103 171 163 144
-53.518486 6.2337065 -5.8892894 68 50 33
-56.735508 11.270724 -13.269342 158 146 124
-55.790108 11.119011 -14.870461 190 181 164
-55.62389 11.347375 -13.60328 194 181 165
-51.694183 1.3912002 -7.8380284 140 160 184
-52.39056 1.5440203 -4.7027588 98 98 116
-55.97279 11.436339 -12.458814 58 48 53
-55.419922 3.5299423 -7.0146294 108 106 115
-50.773415 1.8439882 -6.9296231 21 21 21
-59.839931 10.697559 -7.1415043 170 151 121
-55.459827 4.4814005 -7.010376 95 96 104
-50.50872 3.1857812 -6.7678366 33 36 43
-52.5186 2.3556819 -8.2543459 8 8 8
-50.230591 3.3403301 -7.0372624 36 36 38
-53.8083 10.280455 -8.2066603 22 22 22
-50.827961 2.4641628 -4.5260725 86 92 102
-51.45311 4.4341145 -10.042035 24 24 24
-51.694664 11.49877 -12.569797 185 170 150
-51.694664 11.49877 -12.569797 185 170 150
-50.828007 11.646568 -1.7289565 155 138 112
-54.313774 11.329929 -2.3690236 168 155 136
-50.455238 3.2975259 -6.8505368 25 25 29
-50.572853 0.069987386 -6.4999375 101 109 117
-50.83926 2.5250347 -4.3254738 183 211 232
-50.241692 3.6954057 -7.7837477 43 66 74
-50.672714 6.59024 -8.6783066 167 179 198
-51.928875 1.7562969 -9.0230236 69 77 90
-52.721272 0.67939317 -9.5828104 155 169 178
-49.519669 11.358603 -10.068053 8 9 9
-50.492561 3.7926545 -5.0146666 120 116 122
-58.909523 10.96908 -12.83604 168 153 132
-50.825954 3.6299796 -6.6774807 11 12 11
-61.395123 10.459186 -3.0405569 199 185 159
-51.349281 1.1891415 -6.0377159 58 87 137
-47.137966 12.296279 -5.7146349 164 151 132
-53.405598 11.437654 -2.155724 158 153 131
-51.226635 1.372937 -5.6023746 157 170 191
-52.623199 5.2402558 -4.8027616 42 44 56
-50.59251 1.6924325 -6.619894 8 9 12
-52.180183 -0.43850505 -9.7791166 131 146 162
-54.278313 1.1493294 -10.898791 201 221 240
-54.668938 10.77037 -6.8166318 16 16 16
-50.538036 1.7359183 -6.4950943 18 27 35
-49.361565 11.952058 -5.565484 153 133 114
-48.56913 11.993681 -7.4579978 40 43 52
-51.737984 1.2634763 -5.2839203 221 250 254
-48.323517 12.130527 -6.117085 161 145 122
-50.472179 2.5879276 -7.3209062 186 204 228
-54.813103 11.021428 -3.807059 17 20 19
-50.476021 2.5753224 -7.2951503 115 136 161
-53.859901 8.4118261 -8.1928015 88 22 21
-61.41151 10.460818 -3.0760212 190 179 159
-50.876118 11.512587 -11.227092 43 46 51
-50.537937 2.4576604 -7.4005198 33 42 48
-50.561123 1.8485955 -6.4763651 13 14 15
-48.236431 12.117343 -9.3231449 167 151 118
-61.692966 10.686206 -11.037076 177 164 147
-19.890903 -4.3875299 16.118965 20 22 29
-52.7836 10.836165 -8.2927046 15 15 15
-50.354965 3.0164475 -7.3873367 99 119 144
-50.459728 2.6639249 -7.3601046 35 48 64
-50.262615 3.2593145 -7.3887901 14 28 41
-50.805359 1.2015131 -7.2072263 36 40 41
-50.278309 3.3099201 -7.5004048 27 32 39
-50.329346 4.4100032 -7.1451683 11 11 11
-50.451603 11.845373 -3.8914211 197 184 165
-54.246471 2.6452301 -10.649835 22 31 67
-52.668682 11.542283 -3.0775297 190 178 156
-52.001701 1.5274241 -8.8973732 137 159 182
-49.796738 12.02987 -3.5368185 166 152 133
-3.587692 -3.3571174 19.50786 57 56 52
-50.399612 2.8442612 -7.4137402 39 45 61
-50.30365 3.0772746 -7.346529 164 184 209
-50.336544 4.1974883 -6.7580352 10 10 10
-50.388752 2.8845899 -7.384891 158 174 200
-50.333775 4.8037629 -6.9108157 12 12 12
-51.517342 11.718981 -3.5988967 166 158 139
-58.811455 10.779611 -2.6518073 187 174 155
-50.507988 11.794288 -3.849195 193 178 158
-50.641125 3.4331679 -7.9120708 22 23 27
-52.966248 7.1516514 -6.639401 100 94 94
-55.306427 11.289219 -3.2799888 34 35 39
-52.627285 7.8416309 -7.1227694 85 24 23
-55.710922 4.5826902 -6.9831438 98 97 102
-50.265572 11.913033 -3.261312 170 158 134
-58.578861 10.964224 -13.454405 163 151 129
-48.739098 12.066221 -5.4186878 157 141 116
-58.262321 10.866092 -4.2489424 169 151 127
-49.066257 11.936258 -3.0875309 167 152 130
-51.299683 3.7003186 -5.5949612 33 34 39
-52.862492 -0.42088228 -9.4437342 153 161 162
-48.753952 11.950251 -2.7164667 188 176 154
-54.021931 10.632494 -5.1977029 21 21 21
-52.022011 10.841942 -9.6454582 22 22 22
-48.531906 12.330455 -9.7747955 191 175 150
-55.5093 5.0764265 -7.0425444 105 57 69
-48.81139 12.036962 -4.3004746 157 140 112
-51.023548 11.166632 -11.29095 30 34 37
-15.251632 0.43832302 16.463655 46 48 47
-58.243717 10.813722 -2.8098774 182 174 155
-62.745144 10.461818 -2.9617691 182 167 148
-50.718277 2.0226424 -6.7105618 13 13 13
-52.301849 11.59179 -2.9685416 192 177 158
-51.486576 11.178987 -8.3992624 22 23 23
-59.775497 10.695215 -3.5981665 171 154 127
-52.730583 10.861914 -7.3807931 22 22 22
-55.581329 10.853967 -6.5465879 9 9 9
-49.263447 11.93309 -2.9852345 161 146 123
-57.21772 10.887959 -2.0349133 165 158 140
-53.647633 6.375927 -8.127533 76 72 71
-49.982372 11.777448 -11.806546 196 183 152
-49.425407 11.661 -10.144145 13 13 13
-50.333775 4.8037629 -6.9108157 12 12 12
-51.784386 11.634386 -1.9336426 153 145 122
-64.089134 10.300308 -9.603054 187 177 165
-55.057644 11.14147 -1.3236703 139 125 99
-52.369572 1.947168 -9.8098698 16 16 20
-63.444275 10.366761 -10.692495 186 173 157
-58.59568 10.81698 -0.62877619 170 157 137
-51.448807 3.3676066 -5.4412608 3 7 10
-50.292107 3.6693475 -5.1781311 143 134 136
-53.118896 6.109664 -5.1725225 191 176 157
-53.862324 2.198369 -10.651681 36 45 121
-56.157803 11.136015 -1.9936987 195 186 169
-58.109787 10.893215 -1.3130481 174 163 143
-20.377663 -13.162807 19.891598 27 36 46
-59.450115 10.366281 -6.2847147 187 164 122
-50.706524 3.5624816 -5.523952 5 11 35
-51.443665 11.128176 -11.202853 41 40 45
-50.827454 4.1440892 -5.4829817 71 66 60
-52.167191 12.048264 -16.726679 168 153 134
-58.140995 10.872739 -1.2957746 179 166 147
-54.495686 11.304886 -10.977495 174 157 134
-56.126831 11.260643 -15.472583 165 150 129
-53.496613 3.8118539 -10.26372 69 65 64
-59.293377 10.940913 -15.503486 190 176 150
-20.447004 -22.645103 20.818773 41 49 68
-51.664131 11.631002 -13.354114 180 166 140
-58.243717 10.813722 -2.8098774 182 174 155
-48.27821 12.241547 -4.2218103 171 159 141
-60.493912 10.517441 -5.5281634 177 167 155
-49.257877 11.431054 -7.5600743 22 23 25
-49.097248 12.047505 -6.2089558 161 146 117
-49.409012 11.955394 -4.0871925 186 179 160
-58.001293 11.131105 -12.996215 154 138 115
-50.241131 3.2561045 -7.3458805 27 33 40
-52.00378 11.679434 -4.8762436 38 38 38
-57.408924 10.787971 -14.873874 168 149 124
-57.099289 10.984691 -2.4351115 182 172 148
-49.298 11.905258 -2.2867472 160 147 119
-51.778625 1.35689 -5.9501119 11 18 43
-57.609142 11.181165 -13.883786 167 152 123
-48.27821 12.241547 -4.2218103 171 159 141
-54.091236 10.640005 -5.1703811 27 27 27
-49.197258 11.926936 -2.3980925 181 170 148
-49.016071 11.543452 -7.0962453 20 20 20
-53.57576 10.544437 -8.3514652 20 20 18
-50.275543 3.2278893 -7.4492507 31 43 59
-48.56913 11.993681 -7.4579978 40 43 52
-51.52375 11.674751 -2.6273532 162 147 124
-50.341148 3.166635 -5.1517448 26 47 115
-54.239784 11.343081 -2.7913876 170 153 126
-49.075165 11.996773 -5.0007653 152 140 116
-52.318226 11.578844 -2.9490047 189 177 155
-52.398346 2.2364628 -8.7394943 44 42 44
-50.51194 11.089122 -6.9932799 28 29 31
-49.679623 11.836626 -2.4984028 193 180 161
-50.915302 11.7682 -2.5973525 162 145 116
-58.482002 10.806389 -0.2979289 171 156 135
-49.515362 11.777819 -10.181791 11 11 11
-53.281857 2.098402 -5.4116802 107 130 146
-50.602428 11.192288 -11.299641 34 35 39
-50.042587 11.184966 -6.7536287 34 35 37
-50.732906 2.1521871 -6.3213181 148 155 176
-49.516262 11.912579 -10.904569 181 169 142
-55.583904 11.144527 -1.4272346 178 169 150
-48.881397 11.91897 -5.827558 160 147 130
-53.688473 10.840816 -7.110249 13 13 13
-50.345852 3.023031 -7.4514999 27 34 47
-48.227257 12.184455 -6.0731859 197 182 162
-50.055885 5.6726251 -7.1977358 186 174 151
-56.301132 11.276493 -16.123457 167 152 131
-50.993896 11.822136 -13.602415 168 152 126
-52.614407 1.308877 -8.5301075 113 137 163
-53.636478 6.1959991 -5.7923236 79 49 24
-60.631622 10.262248 -5.4616194 186 164 126
-52.489067 -0.58299309 -9.6884422 221 235 254
-45.586567 12.876678 -13.369426 166 158 137
-53.106537 3.0926557 -10.544982 8 11 28
-60.977184 10.536096 -4.467752 164 146 124
-50.573662 3.5942056 -5.7568164 187 208 237
-50.285919 3.4627018 -7.729959 31 32 35
-55.673599 11.424253 -15.854312 174 155 128
-50.113537 3.7825599 -7.4460425 34 36 41
-53.746098 5.5389042 -3.8550909 135 50 35
-50.541897 3.5809326 -5.7529044 187 208 237
-61.887012 10.576862 -0.25876695 64 50 52
-54.557056 7.0945258 -8.6122532 160 147 126
-47.531731 12.420863 -12.13396 153 139 112
-57.936352 11.066257 -12.502704 168 152 137
-51.663105 5.4528646 -10.357669 192 176 154
-49.536133 11.374738 -8.1017952 23 27 28
-61.28756 10.241371 -11.890209 192 171 140
-54.715294 11.255476 -1.449077 175 164 143
-54.499329 10.648167 -7.7621655 23 23 23
-52.167496 11.596094 -12.00931 65 59 59
-60.167198 10.581072 -3.1800246 200 187 168
-50.436394 4.1641216 -6.793292 8 8 8
-57.41198 11.219397 -18.566072 165 149 124
-54.357159 11.327967 -1.4701636 181 166 145
-51.077209 3.640281 -9.5644226 33 34 38
-53.336601 11.496239 -4.0962634 140 129 117
-60.157375 10.599004 -6.3254471 182 174 158
-50.209454 3.4194591 -7.4171891 163 184 205
-51.267014 11.753001 -2.392086 170 158 126
-50.470139 2.5901365 -7.3064423 193 213 237
-50.70697 3.068085 -6.7947736 57 65 76
-54.08551 10.663086 -4.631712 9 9 9
-50.343624 2.9241395 -7.3482051 29 42 56
-54.671101 2.5898566 -4.5792804 89 87 90
-50.2229 3.4805861 -7.5453987 29 37 55
-51.542675 11.745921 -3.7349925 161 148 131
-53.583401 6.3980703 -8.3299332 111 105 107
-55.282242 11.500031 -14.47725 200 188 162
-50.621502 11.585294 -9.5330944 181 175 151
-54.849396 1.2061752 -8.8393583 77 113 149
-51.369411 4.8406296 -4.737258 92 81 77
-50.381283 2.7624347 -7.2516422 33 41 52
-50.669952 3.1120298 -5.9417424 14 18 27
-59.552074 10.369686 -6.5591183 183 163 120
-52.493587 11.011789 -8.7285376 29 30 32
-50.418694 -0.047674257 -6.515419 86 89 93
-58.980919 10.754313 -5.1906185 175 154 130
-51.944469 1.5159196 -7.5613503 64 84 112
-50.47538 2.5436294 -7.2229333 38 51 69
-50.751259 1.2616322 -7.2369418 145 170 199
-54.157543 11.725358 -15.030342 166 151 120
-50.900604 1.4119148 -7.0304341 119 139 164
-51.706699 2.1165051 -9.4652786 56 67 85
-51.293152 4.1678996 -9.7417326 4 4 4
-50.23362 2.9336438 -5.1199508 26 56 144
-50.566902 11.842271 -4.2331028 161 148 129
-50.583542 2.0927961 -6.6829538 8 8 8
-50.456047 2.9969862 -6.924819 37 38 43
-48.303482 12.193244 -8.2598667 192 178 152
-52.017834 1.3346322 -8.0765362 70 92 116
-50.92868 11.758347 -13.580505 167 153 126
-51.477142 3.3892012 -5.4135752 3 5 9
-50.163662 4.7210832 -7.0273027 30 31 33
-56.896988 11.035332 -1.8142786 176 163 143
-52.273743 2.8799629 -8.2985811 10 9 10
-50.93845 11.24429 -8.0408993 29 30 34
-56.802803 10.858154 -9.7764301 112 90 66
-48.915485 12.084588 -6.1350307 196 181 158
-55.785511 10.397387 -8.7687435 27 28 28
-50.986298 3.2079959 -5.3127007 7 9 8
-51.340347 1.768721 -6.0953851 97 99 111
-50.349407 2.9274383 -7.3442831 29 42 56
-50.57193 11.742397 -5.4621768 182 179 159
-53.879219 10.838984 -7.9720078 4 4 4
-60.165104 10.626171 -5.5787935 196 181 160
-60.699684 10.611265 -0.82021683 163 152 132
-60.854118 17.017885 -6.6647863 120 113 91
-56.403015 2.1801476 -11.03794 187 179 160
-66.352814 10.18576 -7.0296578 56 44 48
-55.295391 11.184139 -1.1228863 203 185 161
-54.605713 2.3640521 -5.4055967 66 81 93
-50.812222 11.265924 -9.517972 10 10 10
-60.806831 10.554616 -1.9697006 197 186 168
-57.235382 10.620975 -5.5053315 25 25 25
-56.252941 11.29493 -15.10242 165 151 123
-58.650967 11.032958 -12.961606 191 183 162
-52.962669 6.5962853 -6.5576916 60 56 56
-50.634521 11.840924 -4.2534928 190 179 161
-51.535465 3.5566928 -5.6741157 18 22 58
-51.371006 3.4966919 -5.7187696 7 15 59
-50.164112 3.5988758 -7.3956051 25 36 48
-49.879448 11.898187 -5.5532923 161 145 120
-53.514717 2.7117364 -5.0633016 89 91 103
-57.787647 11.127082 -12.649045 176 165 147
-50.092426 3.8104355 -7.0878296 94 113 130
-50.525753 3.3114815 -7.8891439 43 46 51
-50.899624 -0.068225868 -6.5856433 163 174 185
-50.40004 2.7719471 -7.3369303 44 63 87
-53.897129 11.366273 -1.4418999 165 154 133
-51.191566 3.307821 -9.3519278 67 77 86
-55.137897 11.221766 -1.3066159 174 159 137
-59.745167 10.660623 -5.4836555 195 178 158
-50.400444 2.7723439 -7.337832 44 63 87
-55.876923 11.387928 -16.124466 200 184 158
-54.559189 11.30955 -1.5400759 169 158 140
-52.980999 6.5389643 -6.5676246 90 85 82
-51.612442 3.1151397 -9.1497879 14 14 14
-51.709335 11.73387 -4.1980643 164 153 132
-51.486542 11.247988 -8.596035 37 38 40
-51.486347 2.1747093 -9.1381216 23 34 49
-55.426418 11.192553 -10.481427 131 114 92
-50.827793 11.582442 -9.2800846 40 40 37
-55.829777 11.052476 -10.097329 38 34 28
-50.377052 2.8360908 -7.3460279 38 52 74
-19.765028 7.2967477 14.392285 130 155 175
-50.590347 11.826683 -3.7753179 165 149 133
-53.38586 7.6967444 -7.398972 15 15 15
-53.224178 5.5800962 -6.5438852 95 101 125
-51.427174 5.7307329 -6.6716285 182 170 146
-50.253693 11.855526 -5.1100235 154 132 108
-50.206501 3.750958 -7.0150175 16 16 16
-51.722023 1.8719205 -4.5397444 170 60 68
-54.805378 10.729535 -6.7939081 3 3 3
-64.843933 10.20791 -1.7897816 189 173 147
-59.0424 10.772734 -3.5534573 182 167 145
-49.932602 5.355123 -7.3271475 30 22 18
-53.690239 8.4476776 -8.2428226 62 11 8
-7.6513915 -18.156538 17.481361 6 6 6
-51.599869 10.835296 -5.7537599 33 33 35
-51.155899 5.8237572 -8.3787193 152 158 172
-51.151085 6.0030451 -8.4083691 150 158 170
-58.271255 10.892721 -1.9935454 176 159 133
-51.865822 11.539748 -13.290647 128 112 78
-50.450817 2.663816 -7.3767586 29 45 61
-54.594868 10.729875 -6.8329616 19 19 19
-53.130005 8.1798487 -6.6026096 42 10 10
-55.15176 10.782053 -9.860549 41 40 38
-55.9151 11.274467 -14.444746 163 152 131
-58.774986 10.974544 -17.671515 201 183 159
-50.182301 3.4919322 -7.3756094 28 33 44
-54.370064 4.4856997 -7.6208644 5 5 5
-51.427444 2.7522209 -9.1877642 12 16 19
-49.405064 11.31708 -9.991538 14 14 16
-55.840393 11.196169 -2.8000493 176 163 143
-51.029774 11.749413 -4.7159882 160 144 121
-51.528694 3.4334505 -5.7085943 15 18 52
-51.823715 11.515749 -1.0210305 178 165 146
-57.497189 11.103339 -17.20076 166 151 130
-54.359627 -0.73870409 -4.3024635 153 164 166
-54.099461 11.022191 -5.0940428 25 25 25
-58.149986 10.886225 -1.3862978 197 185 161
-62.3876 10.475036 -3.5294709 194 177 157
-51.928295 1.5497445 -9.0107079 42 51 60
-63.255344 10.338331 -4.7965684 169 149 124
-53.177376 11.464393 -11.233766 35 34 35
-53.658318 8.4116955 -8.0797834 88 23 23
-49.52557 11.773473 -4.6064482 196 182 165
-52.227577 1.7219336 -8.5647335 150 161 179
-51.514843 11.615016 -4.1766973 188 175 156
-52.071732 1.7611949 -8.8218918 49 60 81
-51.913151 3.7183447 -8.8323479 20 20 20
-53.709263 7.4566154 -7.2543683 15 15 15
-58.272968 11.021901 -15.406924 201 185 159
-63.019657 10.303877 -4.4096775 170 154 129
-51.148869 3.0985291 -6.6012793 55 57 56
-51.099659 2.2931907 -6.0052638 8 33 94
-59.560497 10.775889 -4.1679249 200 183 161
-50.639389 1.807586 -7.050426 27 29 28
-59.603802 10.648261 -5.4396987 174 167 154
-62.158325 10.445336 -2.3051577 195 180 158
-61.519051 10.604314 -13.81721 188 172 156
-52.442059 11.57871 -3.5255339 149 134 111
-59.309772 10.554168 -5.5592017 198 178 154
-50.210236 3.4227738 -7.4169736 171 188 212
-51.593578 11.630399 -4.2031746 164 153 132
-55.339043 11.24759 -2.6295881 171 155 132
-52.07827 3.6716824 -8.8201103 5 5 5
-51.510338 11.710408 -3.5962856 172 159 139
-51.991871 1.3112431 -5.1073966 107 120 141
-58.920189 10.682973 -5.4382439 194 174 146
-56.544868 11.121338 -9.9919481 125 106 80
-48.801769 11.761962 -6.2103395 164 149 120
-62.246098 10.395834 -2.3243828 153 133 108
-50.757229 11.696751 -4.8505425 193 181 164
-58.90094 10.773976 -5.5798635 173 151 127
-51.79044 1.1731569 -9.1630268 52 61 69
-54.275162 3.6129 -5.3869596 132 50 29
-53.163971 10.917496 -7.5708346 18 18 18
-20.3372 -4.7791781 14.126151 8 26 48
-51.20459 1.9663131 -6.2815118 104 119 142
-53.671085 7.6471109 -7.9702015 7 5 6
-53.628506 8.5992346 -6.1331887 114 42 36
-51.884819 1.6069047 -9.0087805 113 126 135
-48.737545 12.120389 -5.124042 198 181 162
-55.307625 11.186202 -2.3237641 171 161 137
-51.504333 1.8965447 -6.0074768 26 30 31
-48.890091 11.519912 -7.9548192 33 38 41
-53.733547 1.0396786 -8.7634869 41 83 190
-50.946293 3.3748565 -6.6736097 66 74 77
-57.731907 10.970592 -1.6609501 198 185 161
-48.905056 11.397278 -7.8562493 26 31 35
-52.405037 11.389129 -1.2215359 186 178 157
-53.1138 3.5036817 -10.950637 129 114 107
-59.281002 10.74428 -4.7123132 178 154 126
-59.217739 10.706886 -4.7129431 178 154 126
-55.452484 11.226748 -2.5703459 172 156 131
-52.08073 1.4344765 -8.8022346 123 143 167
-60.216465 10.64896 -5.2794075 178 157 128
-50.896214 11.436149 -9.8683929 38 39 41
-50.850903 3.0328851 -6.7723956 29 31 33
-50.002037 11.882587 -5.5046897 166 154 132
-51.27037 1.3361334 -5.554039 232 255 255
-58.569782 10.721404 -2.9806643 196 190 178
-59.185379 10.716846 -3.203666 187 182 165
-54.72369 3.4858491 -5.3596315 107 104 107
-53.252762 3.3331571 -10.872162 215 238 254
-63.175144 10.353832 -3.7914767 172 157 134
-63.013538 10.331754 -3.606272 181 166 145
-59.600384 10.731028 -2.4462123 166 154 129
-59.83305 10.718795 -1.5450624 167 152 126
-48.743965 11.454207 -7.8145318 20 24 25
-51.96571 3.533149 -8.8331661 14 14 14
-54.610634 11.646558 -14.263016 187 176 156
-52.020683 1.137863 -4.9690509 199 213 237
-54.978436 4.6697502 -6.1565447 75 67 64
-51.379417 1.3192427 -5.6136279 87 94 111
-11.765965 -15.749121 16.078272 5 5 5
-59.237297 10.778657 -1.474563 175 162 143
-50.591434 11.837175 -3.7800133 153 137 111
-50.337719 3.0096118 -7.4575725 25 39 55
-50.225151 3.3867335 -7.4575977 35 50 76
-53.360184 10.7487 -4.6093626 16 16 16
-53.320526 7.3078313 -6.0466099 126 121 118
-50.304829 3.0473776 -7.3559351 182 200 224
-50.401997 4.4136195 -6.8612585 30 30 30
-62.401711 10.550353 -8.7414427 163 147 124
-50.365185 2.99948 -6.9495893 16 20 23
-50.683846 1.5916017 -6.9482536 62 70 85
-51.224285 2.693615 -5.8410072 52 82 179
-53.900894 11.574538 -12.292878 171 154 127
-50.73481 1.7336165 -6.8507061 19 19 19
-50.957443 2.2738278 -6.2479029 51 58 66
-52.306087 1.0708001 -5.5213914 156 181 203
-53.148148 6.7192521 -6.3387904 112 109 104
-51.899143 1.2427014 -9.5019674 168 168 166
-50.070858 3.6892562 -7.733335 22 26 29
-51.288521 3.2014723 -6.4191399 39 40 42
-50.764183 3.1154847 -6.8264351 19 27 34
-53.703445 0.92527217 -8.1867714 72 108 189
-52.245178 2.2076795 -8.7737522 41 41 43
-50.626968 2.2711492 -6.4978919 107 113 118
-53.76807 7.4182763 -7.9456468 9 9 9
-51.158981 11.594377 -1.0274211 155 147 128
-50.594872 3.1947787 -5.8416853 5 13 49
-50.851509 3.5535543 -6.7058606 83 92 108
-56.068314 11.306131 -14.615801 195 184 166
-50.508495 3.1885335 -5.7664194 6 10 45
-53.650063 6.5513473 -5.9622774 121 109 107
-53.636765 6.5449624 -5.9551105 121 109 107
-51.052559 4.3111115 -6.5143399 16 16 16
-50.644218 3.9723427 -4.9061003 121 115 117
-51.486015 3.1303036 -9.4891272 35 39 42
-54.18364 11.424362 -3.1412187 177 165 150
-51.036674 4.5026755 -6.7860842 15 15 15
-55.350368 11.127357 -1.2550715 181 168 149
-51.358097 6.8862772 -8.5027685 187 175 158
-48.806625 11.995655 -10.461997 161 150 130
-49.498978 11.442376 -9.7338428 48 50 54
-51.193123 2.8178694 -5.8320127 7 11 55
-50.753429 2.4480085 -4.5820794 28 28 31
-53.021442 5.848731 -6.3468943 103 99 98
-48.896759 12.046288 -10.614608 159 144 109
-52.669262 7.9567499 -6.6388745 123 120 117
-51.135296 1.9006382 -6.2180715 7 10 17
-54.110451 5.3597121 -8.1475363 8 8 10
-51.525173 2.9835565 -9.4556961 36 40 43
-55.003922 11.418355 -12.149912 167 155 132
-55.060871 11.149177 -1.3274064 156 141 123
-53.179955 7.6766233 -6.3169694 6 6 11
-57.32803 10.907858 -3.7559481 73 66 66
-53.217129 7.8638 -6.2407708 19 21 22
-53.172218 7.8388667 -6.2161217 19 21 22
-51.248444 2.6489241 -5.7758689 55 86 184
-51.689728 1.6846896 -9.0743904 15 20 24
-52.064381 0.92925918 -8.9896345 20 34 42
-54.37521 11.530464 -12.023714 172 156 133
-54.830147 7.8120203 -8.2520599 123 116 99
-53.598972 7.2935753 -8.3488693 114 117 123
-56.469978 11.364709 -13.330925 197 180 155
-51.644295 10.981327 -5.7465982 13 13 14
-51.797649 11.254922 -8.966692 38 39 43
-50.111572 4.8154202 -6.9613113 22 23 25
-50.980156 2.7928312 -6.3332243 79 79 86
-53.238861 7.7412105 -6.2004881 21 21 22
-53.238861 7.7412105 -6.2004881 21 21 22
-53.834457 8.3180132 -5.9827805 122 122 122
-53.148521 7.5976086 -6.3357925 104 103 108
-58.852089 10.780295 -4.1850281 186 173 154
-52.281235 1.063958 -5.5454116 134 162 189
-52.281235 1.063958 -5.5454116 134 162 189
-50.459965 4.1390781 -6.7917624 5 5 5
-53.863823 6.4812851 -5.8795714 126 112 105
-58.52969 10.638167 -13.677657 164 143 112
-50.294899 4.787003 -6.8976707 13 13 13
-52.130562 0.97910881 -5.0454788 122 135 155
-50.68153 2.499702 -5.0646467 34 56 135
-53.439354 11.774681 -16.381622 171 157 138
-50.820477 2.474761 -5.1123414 31 55 135
-53.742142 6.6043167 -5.9276452 48 46 44
-51.326488 3.4875844 -9.2062998 16 16 16
-52.751339 11.470286 -1.3429272 183 174 157
-55.722458 11.43629 -16.809587 202 187 158
-50.542595 1.7530662 -6.6179752 227 238 253
-52.581757 11.544671 -2.8153911 179 177 165
-51.95837 11.347363 -4.6870799 31 32 36
-50.282547 3.642657 -6.9912357 12 13 14
-51.305515 2.8226309 -5.7624164 0 14 59
-51.521542 1.895924 -6.0342736 41 42 44
-50.972599 2.5038908 -6.0333505 52 84 187
-51.044704 2.7132521 -5.8311443 6 14 67
-62.622272 10.325906 -2.2634284 67 52 55
-55.046242 2.4872673 -5.2317901 18 18 18
-56.206867 10.999426 -1.2517753 161 153 135
-50.791531 5.809536 -6.9544201 48 38 27
-54.359974 8.048233 -6.0579009 39 35 37
-54.359974 8.048233 -6.0579009 39 35 37
-50.475071 2.7634223 -4.2702022 120 120 134
-54.882603 11.274009 -2.4999635 154 138 110
-57.361359 10.966678 -2.7551272 134 117 89
-50.760025 5.6876006 -6.9538507 35 29 24
-52.087769 1.1206595 -5.1230774 217 239 255
-50.400593 5.6830111 -7.0257268 31 22 19
-50.80341 3.0771885 -4.92945 31 47 107
-50.796368 3.07446 -4.9274573 31 47 107
-59.590263 10.410235 -6.6971874 189 170 123
-59.171417 10.849763 -6.1632571 158 146 122
-48.211487 12.202893 -9.544282 194 188 174
-57.617332 10.925888 -3.8558638 185 169 144
-52.109585 1.1293329 -5.0015278 207 227 251
-54.210732 11.347667 -3.2576387 187 179 168
-56.06831 11.306116 -14.615768 195 184 166
-51.001347 -0.096920028 -6.2510324 202 226 249
-51.193233 11.313528 -8.675025 137 139 138
-50.055386 3.8670857 -7.1858201 34 35 37
-50.903221 2.7275362 -5.9760623 10 28 97
-53.513153 7.0319738 -8.180625 67 67 69
-50.592052 3.0360994 -6.8525624 55 64 80
-52.23193 5.3294539 -10.01226 34 26 21
-57.23114 11.10004 -15.151072 183 168 149
-19.236254 -6.6859479 21.614595 21 21 23
-56.206867 10.999426 -1.2517753 161 153 135
-51.191525 3.0441034 -4.8753343 33 40 58
-51.191525 3.0441034 -4.8753343 33 40 58
-50.763 1.2617897 -7.1237206 14 19 26
-53.086601 7.1571012 -6.961802 85 83 85
-51.251598 1.9498154 -6.2387614 13 22 29
-52.100399 5.4536333 -10.103205 40 30 22
-52.089413 5.3408909 -10.092446 167 164 146
-52.089413 5.3408909 -10.092446 167 164 146
-50.678516 2.480762 -5.1223106 8 27 97
-54.22802 2.9239886 -4.8752379 84 82 78
-54.169918 2.4082332 -4.9391503 210 223 238
-50.744095 2.2397208 -6.3742151 221 242 255
-50.755997 2.2433405 -6.3795905 221 242 255
-50.057652 11.941976 -11.628295 61 61 56
-50.427265 5.6557441 -6.9818368 176 169 152
-50.427265 5.6557441 -6.9818368 176 169 152
-59.315342 10.631216 -1.3636857 168 153 137
-53.489651 7.025423 -8.0410728 45 46 43
-55.052475 11.165205 -1.3882909 183 172 154
-54.079231 3.5236223 -6.4504523 92 95 102
-51.928089 5.5465126 -10.224411 41 32 18
