ply
format ascii 1.0
comment PCL generated
element vertex 1422
property float x
property float y
property float z
element camera 0
property float view_px
property float view_py
property float view_pz
property float x_axisx
property float x_axisy
property float x_axisz
property float y_axisx
property float y_axisy
property float y_axisz
property float z_axisx
property float z_axisy
property float z_axisz
property float focal
property float scalex
property float scaley
property float centerx
property float centery
property int viewportx
property int viewporty
property float k1
property float k2
end_header
1.9753293 0.1649545 -0.53173411
1.9754691 0.16699527 -0.53202152
1.9746433 0.170552 -0.52982336
1.9757317 0.17153172 -0.53231382
1.9755371 0.1740419 -0.53196496
1.9746257 0.17599599 -0.53087831
1.9715821 0.17781885 -0.52730596
1.9660809 0.1810984 -0.52090335
1.966017 0.18343414 -0.5204289
1.9655035 0.18576945 -0.51999992
1.9653307 0.18820317 -0.52017379
1.9651603 0.19040096 -0.52030951
1.9652601 0.19283576 -0.52047479
1.9653742 0.19500746 -0.52068144
1.9654883 0.19717883 -0.52088809
1.9654863 0.19930062 -0.52084589
1.9645377 0.20167358 -0.52028322
1.9641882 0.20423993 -0.51976717
1.9643914 0.20630455 -0.51965445
1.9648645 0.20879796 -0.51990694
1.9649236 0.21202596 -0.51987308
1.9692035 0.23542215 -0.52475762
1.9671384 0.24501406 -0.52271807
1.9599612 0.27418521 -0.51388818
1.9608271 0.27657312 -0.51539177
1.9617714 0.27903658 -0.51687557
1.9628627 0.28171697 -0.51848239
1.9645009 0.28421074 -0.52019352
1.9653085 0.28639182 -0.521182
1.9654607 0.28900045 -0.52120185
1.9656589 0.29158229 -0.52124649
1.9662839 0.29364789 -0.52206492
1.967718 0.29807863 -0.52374262
1.967909 0.30023769 -0.52383882
-0.81892133 0.26023358 2.6516829
-0.82115388 0.27390271 2.6556752
-0.81813335 0.28432345 2.6542675
-0.81732804 0.29555911 2.653224
-0.81322783 0.30756912 2.64697
-0.81217122 0.31774345 2.6437821
-0.81849259 0.33022204 2.6512623
-0.81613523 0.34135735 2.648937
-0.82059479 0.3533549 2.6539564
-0.81740427 0.36360919 2.6504943
-0.8076753 0.37422892 2.6391115
-0.81074446 0.38643619 2.6417506
-0.8136791 0.39698386 2.6455863
-0.8151716 0.40937772 2.646812
-0.82380342 0.42320472 2.656033
-0.8230269 0.43427271 2.6549528
-0.82214975 0.44718689 2.6549604
1.9797726 0.077699125 -0.53426373
1.9794734 0.079693913 -0.53368574
1.9762264 0.090796523 -0.5322206
1.9788473 0.09792044 -0.53307319
1.9807967 0.10029387 -0.5353303
1.982684 0.10296167 -0.53729403
1.9831455 0.10547237 -0.53797436
1.9832909 0.10777523 -0.53812885
1.9833173 0.10999312 -0.53810602
1.9833617 0.11217137 -0.53845042
1.9831914 0.11443525 -0.53830826
1.9829396 0.11660062 -0.53813285
1.9829589 0.11901274 -0.53808361
1.9827063 0.12118113 -0.5379079
1.9822665 0.123414 -0.53724575
1.9819862 0.12553905 -0.53697091
1.9815727 0.12782575 -0.5364058
1.9815751 0.12988804 -0.53636694
1.9810631 0.13149367 -0.53606492
1.9801776 0.13392378 -0.5347721
1.9794323 0.13592328 -0.53408194
1.9784268 0.13824293 -0.53298563
1.977595 0.14000319 -0.53174472
1.9766651 0.14204051 -0.53089929
1.9754355 0.14410889 -0.52948374
1.9746181 0.14644949 -0.5287357
1.9763101 0.14840117 -0.53089213
1.9923687 0.15173855 -0.5674578
1.9772959 0.15811829 -0.53195208
1.9773086 0.16037957 -0.53190732
1.9773213 0.16264141 -0.53186274
1.9773345 0.16490397 -0.53181827
1.976485 0.1682298 -0.52950716
1.9776223 0.17187791 -0.5323348
1.9770164 0.17438151 -0.5312503
1.9668016 0.188697 -0.51948714
1.9666517 0.1905496 -0.5191651
1.9667318 0.19266102 -0.51930904
1.9668473 0.19499108 -0.51948667
1.9666572 0.19729236 -0.5198856
1.9668984 0.19977567 -0.52037925
1.9665786 0.20198856 -0.52024657
1.966208 0.2046528 -0.51959378
1.9656997 0.20670886 -0.51926458
1.9656969 0.20918965 -0.51921493
1.965742 0.21211274 -0.51891911
1.9619193 0.24670531 -0.51787823
1.9632168 0.27912858 -0.51618767
1.9642391 0.28150126 -0.51760924
1.96763 0.28888425 -0.52162927
1.9687415 0.29859018 -0.52278155
1.9688625 0.30089092 -0.52317953
1.9690241 0.30254948 -0.52364415
1.9821895 0.075797185 -0.5348742
1.9810836 0.077882528 -0.53385597
1.9809813 0.079772271 -0.53358138
1.9801452 0.097988598 -0.53327179
1.981577 0.10046106 -0.53425449
1.9833097 0.10284461 -0.5362832
1.9844756 0.10528063 -0.53746986
1.9846267 0.10794277 -0.53773582
1.9846308 0.11033618 -0.53769106
1.9846419 0.11240103 -0.53783596
1.9843378 0.11445307 -0.53782141
1.983879 0.11681262 -0.53756994
1.9838581 0.11897626 -0.53746003
1.9838372 0.1211408 -0.53735012
1.9837712 0.12329102 -0.53713685
1.9836814 0.12555166 -0.53685188
1.982859 0.12769823 -0.53599024
1.982476 0.12984957 -0.53574187
1.9824874 0.13174702 -0.53570426
1.9815733 0.13385548 -0.53459603
1.9806616 0.13608217 -0.53350449
1.9796689 0.13810214 -0.53254187
1.9788793 0.14003459 -0.53132755
1.9780347 0.14186856 -0.53045422
1.9767387 0.1441679 -0.52920049
1.9758834 0.14644466 -0.52842462
1.9777256 0.1489588 -0.53073883
1.9784688 0.15132971 -0.53130013
1.978459 0.1538627 -0.53110468
1.9785124 0.15615971 -0.53114754
1.9785135 0.15824014 -0.5311076
1.9785262 0.16050091 -0.53106284
1.9785395 0.16276231 -0.53101814
1.9781128 0.16518977 -0.52993196
1.9782454 0.167474 -0.5303176
1.9779707 0.16973504 -0.5292936
1.9680624 0.19588993 -0.51848859
1.9681292 0.19754381 -0.51908708
1.9676249 0.19986281 -0.51855272
1.9676244 0.20214652 -0.51867551
1.9672896 0.20450775 -0.51837641
1.967173 0.20675649 -0.51827377
1.966543 0.20923792 -0.51821876
1.9666404 0.21255916 -0.51748341
1.9649318 0.28189179 -0.51635712
1.9665803 0.28413007 -0.51829404
1.9698123 0.29109147 -0.52201164
1.9713628 0.30324459 -0.52430385
1.9716198 0.30562925 -0.52461928
-0.80733234 0.26764891 2.6638899
2.0450947 -0.15273988 -0.6030699
2.0437694 -0.12123056 -0.6024127
1.9849386 0.065566912 -0.53585434
1.9848762 0.067862198 -0.53577107
1.9852917 0.070209399 -0.53668028
1.9851899 0.072191089 -0.53622288
1.984553 0.074152313 -0.53576005
1.9838982 0.07613235 -0.53506052
1.9829385 0.10135273 -0.53396577
1.9845445 0.10326988 -0.53580815
1.9857327 0.10565071 -0.53719866
1.9857744 0.10796281 -0.53725213
1.9855313 0.11030092 -0.53707063
1.9856316 0.11224159 -0.53727508
1.985351 0.11482771 -0.53724372
1.9852571 0.11682669 -0.53715086
1.9850668 0.11910563 -0.53662562
1.9850789 0.12133917 -0.53658175
1.9850819 0.12339498 -0.53654307
1.98449 0.1257171 -0.5359832
1.9844007 0.12797949 -0.53569788
1.983891 0.12992495 -0.53538889
1.9833169 0.13220277 -0.53440177
1.982693 0.13422593 -0.53333908
1.9818436 0.13608341 -0.53264523
1.9810445 0.13808054 -0.53180212
1.9804227 0.13978286 -0.53104895
1.9795287 0.14145441 -0.53054911
1.9786103 0.14699095 -0.52987051
1.9783528 0.14997976 -0.52925473
1.9788615 0.15218167 -0.52912229
1.9684368 0.20931889 -0.51764739
1.9701967 0.24436118 -0.52018619
1.9688623 0.2864925 -0.51860541
1.9724693 0.29387754 -0.52368516
1.9731679 0.2958051 -0.52412528
1.9732131 0.29834744 -0.52417427
1.9734167 0.30067304 -0.52452755
1.973435 0.30299246 -0.52448243
1.9733765 0.30548781 -0.52442998
1.9736491 0.30802229 -0.52525854
-0.80485517 0.28259107 2.6666009
-0.81703144 0.2962701 2.6750784
-0.80251426 0.3074441 2.6575973
-0.800484 0.31784153 2.6555209
-0.80852264 0.3301335 2.6654282
-0.81273395 0.34150895 2.6724663
-0.82186651 0.35416055 2.682934
-0.8294785 0.36698318 2.6902936
-0.83094418 0.37804285 2.6921537
-0.82060099 0.3891114 2.6785495
-0.82292014 0.39993155 2.6795971
-0.82023364 0.4119015 2.6779835
-0.82411379 0.42235211 2.6836426
-0.82615227 0.43599343 2.6861985
-0.81861889 0.44754088 2.6761553
-0.82513297 0.46066085 2.6817644
1.9867622 0.063490897 -0.53579456
1.9863057 0.065458424 -0.53554064
1.9862522 0.06806764 -0.53535831
1.9863176 0.070254967 -0.5354507
1.9864972 0.072376207 -0.53582031
1.9865994 0.074168161 -0.53584301
1.9859368 0.10306949 -0.53559208
1.9870535 0.10548078 -0.53642434
1.9872253 0.10832892 -0.53627151
1.9872347 0.11019856 -0.53652048
1.9870532 0.1126493 -0.53599042
1.9869772 0.11483592 -0.53600895
1.9870234 0.1168338 -0.53581464
1.9866761 0.11927587 -0.53564292
1.9864599 0.12133221 -0.53548312
1.986765 0.12353742 -0.53576958
1.9860474 0.125992 -0.53508949
1.9863143 0.1280047 -0.53536052
1.9858512 0.13000225 -0.53506327
1.9853463 0.13201936 -0.53440809
1.9754385 0.18533389 -0.52278972
1.973554 0.1938802 -0.52080482
1.9713182 0.24398439 -0.51924533
1.9694703 0.28725061 -0.51661271
1.9707556 0.28911254 -0.51803356
1.9749056 0.29621232 -0.52372867
1.9759946 0.3010799 -0.52514833
1.9762722 0.30316368 -0.52526504
1.9767219 0.30569375 -0.52561653
1.9768193 0.30806214 -0.52579647
1.9765497 0.31044471 -0.52603298
-0.80315918 0.29413083 2.6779122
-0.80244565 0.30667073 2.6734648
-0.80591774 0.3185285 2.6779537
-0.80949694 0.33054221 2.683809
-0.79799521 0.34054983 2.6685038
-0.80688232 0.35307506 2.6764922
-0.80891359 0.36535957 2.6791801
-0.80767947 0.37628236 2.680258
-0.81126672 0.38826144 2.6848683
-0.81305081 0.39977351 2.687289
-0.80414051 0.41075924 2.6773565
-0.80373794 0.4211683 2.6748784
-0.80606866 0.43433771 2.677897
-0.80961859 0.44680369 2.682112
-0.82305086 0.46034178 2.6949754
1.9874731 0.063322134 -0.53451425
1.9875754 0.065436281 -0.53476638
1.9880193 0.068140835 -0.53494662
1.9881939 0.070082746 -0.53532201
1.9884601 0.10602998 -0.53616309
1.9772539 0.18948676 -0.52370781
1.976745 0.19453315 -0.52253169
1.97588 0.19780555 -0.52204299
1.9743127 0.20485385 -0.52023816
1.9734141 0.20683385 -0.519723
1.9733961 0.2084157 -0.51969159
1.9722661 0.2125469 -0.51853162
1.9582479 0.22087093 -0.50166839
1.9686238 0.25263315 -0.51375431
1.9742806 0.29199454 -0.52021867
1.9776027 0.298448 -0.52457106
1.9781208 0.30031449 -0.52541548
1.9782435 0.30291805 -0.52561212
1.9787741 0.30543423 -0.52584571
2.0420153 -0.11731181 -0.59281433
1.9883717 0.061096564 -0.5341295
1.9883739 0.062957935 -0.53409702
1.9885824 0.065599747 -0.53415579
1.989104 0.068071842 -0.53438586
1.9895344 0.070086695 -0.53482425
1.9775804 0.19864705 -0.52217507
1.977245 0.20076148 -0.52194458
1.9764944 0.20279025 -0.52098042
1.9757965 0.20549808 -0.52002406
1.9749455 0.20727596 -0.51946819
1.9747528 0.20919824 -0.5191732
1.9733679 0.21268167 -0.51804191
1.9692353 0.25366387 -0.51330787
1.970547 0.25611264 -0.51398784
1.974153 0.29247186 -0.51803458
1.9759418 0.29397729 -0.52032888
1.980409 0.30295554 -0.52603644
1.9803689 0.30589461 -0.52594042
1.9805675 0.30807859 -0.52626479
1.980883 0.31033322 -0.52688015
1.9814234 0.31309301 -0.52781767
-0.78920478 0.30498347 2.6825323
2.0477734 -0.15901493 -0.59743625
2.0433204 -0.11471439 -0.59154677
1.9830562 0.18319044 -0.52630138
1.9822551 0.18537658 -0.52581257
1.9818095 0.18774518 -0.52508742
1.9818593 0.18973532 -0.5251168
1.9810189 0.19188625 -0.52397239
1.9804733 0.19417195 -0.52354854
1.9797318 0.19656365 -0.52265388
1.9684507 0.24626805 -0.51050872
1.9737597 0.26290458 -0.51620346
1.9735501 0.26534596 -0.51621366
1.9821423 0.30304593 -0.52621853
1.9824842 0.30591041 -0.5263381
1.9826154 0.3082532 -0.52636003
1.9831969 0.31036162 -0.52665484
1.9835705 0.31286374 -0.52753621
1.983798 0.31503695 -0.52798593
-0.80146849 0.31584471 2.7065475
-0.79815322 0.32979426 2.6951182
-0.79964995 0.34231833 2.6964478
-0.79670095 0.35212556 2.6940017
-0.79351002 0.36315048 2.6909392
-0.80560887 0.37744963 2.7043195
-0.79923117 0.38729346 2.6984267
-0.80296439 0.3997207 2.7007132
-0.79169881 0.41043794 2.685734
-0.78903174 0.42083278 2.6835945
-0.7913546 0.43399212 2.686625
-0.79643834 0.44611004 2.6936731
2.0495534 -0.15987903 -0.59770679
1.8820353 -0.23451208 -0.402677
1.9791508 -0.10431819 -0.51744401
1.9974848 0.12689659 -0.53988779
1.9972978 0.13130969 -0.53968233
1.9967372 0.13098608 -0.53946501
1.9967502 0.13544518 -0.53929496
1.9968182 0.13863388 -0.53930974
1.996443 0.14445287 -0.53891313
1.9748999 0.26809967 -0.51581764
1.9771664 0.27279422 -0.51753408
1.9783256 0.27429166 -0.51903665
1.9799038 0.29880396 -0.52047342
1.9831738 0.30096209 -0.52380496
1.9846888 0.30595747 -0.52679199
1.9849705 0.30832535 -0.52690274
1.9853187 0.31066677 -0.52702308
1.9854866 0.31289834 -0.5273996
1.9856646 0.31528848 -0.52756423
1.9860324 0.3178249 -0.52845484
-0.78277791 0.32740226 2.6946814
-0.80112129 0.34314048 2.7166402
-0.80523539 0.35454065 2.7220089
-0.79807556 0.3644492 2.7131846
-0.80689359 0.37835962 2.722223
-0.81076455 0.38919169 2.7272906
-0.79507726 0.39958519 2.7090466
-0.79659134 0.41149113 2.7099485
-0.79965454 0.42262372 2.7123644
-0.80122453 0.43552053 2.7137408
-0.8055163 0.44779113 2.717062
-0.80781472 0.45925972 2.7221048
1.8856453 -0.23765816 -0.40661761
1.8858558 -0.23481169 -0.40596512
1.8858987 -0.23325177 -0.40592617
1.9780426 -0.11591795 -0.51408136
1.9793366 -0.10404283 -0.51567
1.9863043 0.18130124 -0.52566582
1.9794338 0.27529871 -0.51787949
1.9796896 0.27718198 -0.51838988
1.9799477 0.27968246 -0.51892
1.9806412 0.28146675 -0.51963484
1.9806993 0.28411564 -0.51977861
1.9807403 0.28660643 -0.51973039
1.9864203 0.30295801 -0.52633286
1.9868486 0.3057102 -0.52726007
1.9869183 0.30836526 -0.52721179
1.9873694 0.30997741 -0.52745789
1.9878993 0.31985381 -0.5287807
1.8874177 -0.23773065 -0.40651909
1.887954 -0.23497497 -0.40677959
1.9792191 -0.1165545 -0.51327097
1.9808255 -0.10368597 -0.51575756
2.0006163 0.15348753 -0.54029369
1.9991825 0.16195576 -0.53858995
1.9991086 0.16441576 -0.53848743
1.9897428 0.17241856 -0.52723736
1.9888226 0.17466386 -0.52682453
1.9884387 0.17691346 -0.52641076
1.9875834 0.17933704 -0.52597708
1.9696395 0.24153204 -0.50454378
1.9813137 0.28232932 -0.51849186
1.9820782 0.28455189 -0.51913637
1.9824253 0.28663367 -0.51988876
1.9828498 0.28976625 -0.52004546
1.9876083 0.30329466 -0.52619612
1.987921 0.30601963 -0.52687746
1.9887767 0.30837637 -0.52749717
1.9890628 0.31050864 -0.52759773
1.989958 0.31987429 -0.5293721
1.8886101 -0.24294513 -0.40482861
1.8895574 -0.23998064 -0.40584186
1.8904594 -0.23662487 -0.4066948
1.8908169 -0.23384942 -0.4070361
1.9823605 -0.10362285 -0.51538306
2.0048811 0.12525061 -0.54325569
2.0047753 0.12717454 -0.54316884
2.0047987 0.12955035 -0.54312158
2.0048034 0.13157466 -0.54308426
2.0046935 0.13391264 -0.54297626
2.0043325 0.13586816 -0.54273468
2.0043578 0.13824761 -0.54268771
2.0043514 0.1400992 -0.54265481
2.004355 0.14212753 -0.54261732
2.0043702 0.14433266 -0.54257512
2.0039063 0.14678684 -0.54225796
2.0353124 0.14461513 -0.62181324
2.0346482 0.14819349 -0.62079185
2.0347362 0.15123211 -0.62073958
1.9899062 0.17456935 -0.52511412
1.9889125 0.17698696 -0.52451313
1.9881306 0.17907846 -0.52384806
1.9876568 0.18121035 -0.52325106
1.984498 0.29159975 -0.51995242
1.9851836 0.29385692 -0.5211699
1.9851239 0.29609957 -0.52120578
1.9853501 0.2985386 -0.52169973
1.9906541 0.31274751 -0.52750909
1.9908295 0.31550336 -0.52769089
1.991199 0.31755838 -0.52862376
1.9913344 0.32018375 -0.52878565
1.9913633 0.32249972 -0.52891684
-0.78403997 0.33964556 2.7236259
-0.79560947 0.35369813 2.7315853
-0.79940808 0.36518246 2.7373929
-0.79451752 0.37748015 2.7333138
-0.79099178 0.38770214 2.7287278
-0.80398041 0.40158603 2.74266
-0.8006593 0.41246948 2.7399168
-0.7996763 0.42469507 2.7395623
-0.79657418 0.43513286 2.7348385
-0.79433751 0.44726238 2.7323267
-0.79147196 0.4604964 2.7285957
1.8917042 -0.23855948 -0.40630496
2.0442502 -0.10891474 -0.58733308
2.0454333 -0.10825191 -0.58601141
1.9843427 -0.10124602 -0.51446593
2.0364287 0.098109856 -0.61817348
2.0069287 0.12530603 -0.54328376
2.0068495 0.12747182 -0.54356766
2.0169873 0.12607744 -0.56890976
2.0354919 0.154587 -0.61942911
2.0037305 0.17057121 -0.54019773
2.0032833 0.1731762 -0.53913695
2.0027475 0.17527325 -0.53879845
1.9895321 0.17667036 -0.52303153
1.9898359 0.1788666 -0.52424979
1.9560165 0.23402967 -0.48381248
1.9724274 0.24428223 -0.50251108
1.9930632 0.32020882 -0.52840674
1.9932946 0.32273346 -0.52896905
-0.78037709 0.3405543 2.7355337
-0.77741665 0.3523587 2.7323682
-0.79388744 0.36614242 2.7503457
-0.7923336 0.37764519 2.7489557
-0.79853517 0.39012045 2.7545822
-0.79221874 0.40051633 2.7479014
-0.78358465 0.41169852 2.7343812
-0.78730297 0.42439264 2.7377739
-0.79696655 0.4370608 2.7508118
-0.78989196 0.44796279 2.7447059
-0.80211788 0.46322235 2.7593284
1.9765865 -0.13368006 -0.50348061
1.9813769 -0.12364262 -0.50903159
1.9850832 -0.10379774 -0.51369864
2.0420556 0.10029151 -0.62512666
2.0089974 0.13004392 -0.543962
2.0089304 0.13213979 -0.54388654
2.0088716 0.13400632 -0.54411483
2.0086594 0.13620694 -0.54400676
2.0086946 0.13829455 -0.54403371
2.0086792 0.14076011 -0.54392123
2.0086834 0.14278144 -0.54388398
2.008719 0.14487059 -0.54391098
2.0082593 0.14724162 -0.5435034
2.00822 0.14943551 -0.54349172
2.0082705 0.15151761 -0.54334956
2.0082068 0.15362141 -0.54344076
2.008286 0.15593018 -0.54343492
2.0078437 0.15808578 -0.54272568
2.0074613 0.16049638 -0.5421713
2.0068574 0.16234018 -0.5417186
2.0060499 0.16677001 -0.54081488
2.0056248 0.16883226 -0.54017049
1.9901677 0.17682135 -0.52187282
1.9895505 0.30131072 -0.52150065
1.9817367 -0.1239988 -0.50812536
1.9854536 -0.10567948 -0.51283616
1.9859669 -0.10307968 -0.51307029
1.986045 -0.10050294 -0.51297867
2.0092943 0.12404365 -0.54203564
1.9918977 0.17478681 -0.52240568
2.0537546 -0.17091045 -0.58920473
2.0489004 -0.10450274 -0.58454883
1.9770848 0.24183331 -0.50406533
1.9768267 0.24429706 -0.5034216
1.9872706 0.29481867 -0.51521212
-0.79205197 0.34196368 2.7704427
-0.77926219 0.35319695 2.7567196
-0.78100234 0.36518306 2.7582655
-0.77503693 0.37713969 2.7512643
-0.77194351 0.38855055 2.7487388
-0.77579105 0.39877358 2.7544372
-0.7807526 0.41227034 2.7606213
-0.78253031 0.42387688 2.7631135
-0.78261763 0.43631542 2.7631392
-0.78841978 0.44878656 2.7677019
-0.77437735 0.46044034 2.7510436
2.0546908 -0.17290114 -0.58709085
2.0494955 -0.10241876 -0.58297586
2.0483208 -0.10191276 -0.58081418
1.9884557 -0.098635465 -0.51140612
1.98685 -0.097163774 -0.50931561
1.9848145 0.0015721933 -0.5072878
1.9886615 0.29963937 -0.51469731
-0.77614945 0.33969036 2.7725608
-0.77373028 0.35408458 2.7705386
-0.7762478 0.36651084 2.7738891
-0.77508664 0.37674895 2.7723155
-0.77099365 0.38891444 2.7639213
-0.76963145 0.39954707 2.7632458
-0.77281553 0.41198426 2.7670622
-0.77536571 0.42320704 2.7691305
-0.79272741 0.43786752 2.7873521
-0.77621561 0.44789109 2.7709317
-0.79067612 0.46225825 2.7906675
2.052875 -0.10208017 -0.58461362
1.9820856 -0.12991413 -0.50128901
1.9891921 -0.098671302 -0.51033562
1.9865904 -0.096968487 -0.50765538
2.0304222 0.088932924 -0.56085098
2.02986 0.09050867 -0.56052095
2.030046 0.091983482 -0.56059968
1.9666375 0.22050333 -0.48662022
1.9227574 -0.22388195 -0.42881769
1.9793648 -0.14130445 -0.49693504
1.982558 -0.13038641 -0.50057322
1.9881489 -0.097304657 -0.50706846
1.9865488 -0.095968522 -0.50559676
2.032372 0.080828048 -0.56208229
2.0323763 0.082638368 -0.56204373
2.0327108 0.084449813 -0.56220812
2.0327132 0.086231589 -0.56217939
2.0100574 0.12665199 -0.5344035
-0.75331241 -0.036122553 2.7572179
-0.75530797 -0.022563742 2.7600121
1.9926465 0.3010636 -0.51470411
1.9229561 -0.22572364 -0.42736137
1.9256041 -0.22268647 -0.42996466
1.925975 -0.22004257 -0.43032965
1.9258566 -0.21763824 -0.43018988
1.925131 -0.21299231 -0.42960882
1.9247862 -0.20300487 -0.42917472
1.9256347 -0.20054908 -0.42980286
1.9249965 -0.19786738 -0.42953199
1.9250926 -0.19520016 -0.42952284
1.9250249 -0.19310559 -0.42941523
2.0518208 -0.100047 -0.58164984
2.0315156 0.006866252 -0.55689359
2.0318947 0.012179665 -0.55770105
2.0319064 0.014122414 -0.55766666
2.0320389 0.015853971 -0.55770546
2.0314236 0.01773141 -0.55732554
2.0314727 0.019279826 -0.55733132
2.0305891 0.051455073 -0.55683184
1.9815122 0.24428082 -0.49936903
-0.75391054 -0.036957256 2.7759678
-0.75305206 -0.023941319 2.7748356
-0.75195211 -0.012067815 2.7705946
-0.75114739 -0.0013701892 2.7667634
-0.74899089 0.010251755 2.7645223
-0.75102007 0.022497881 2.7638977
-0.7496013 0.033082694 2.7628989
1.9859815 0.29399911 -0.50445157
-0.76149529 0.33979109 2.7785707
-0.76920056 0.35356817 2.7872837
-0.75618005 0.36518389 2.771863
-0.76246864 0.37647867 2.7787509
-0.77428949 0.39065304 2.7961314
-0.7706328 0.40057164 2.7911215
-0.77443743 0.41460475 2.7963338
-0.77740848 0.42548615 2.8004258
-0.77146417 0.43736666 2.7927992
-0.77144754 0.44943854 2.7899861
-0.76001406 0.4588972 2.777427
2.0563338 -0.17860413 -0.58338916
1.9243104 -0.23203252 -0.42470866
1.9247025 -0.22887506 -0.42604324
1.9279132 -0.22194572 -0.42995006
1.9279312 -0.2193909 -0.4298881
1.9279225 -0.21701288 -0.42981887
1.9280456 -0.21450552 -0.42982656
1.9273496 -0.21218953 -0.42932346
1.9270306 -0.20999669 -0.42906687
1.9275246 -0.19966692 -0.42951545
1.92749 -0.19718549 -0.42989302
1.9271975 -0.1946996 -0.42958513
1.9275757 -0.19188604 -0.43046427
1.9272656 -0.18984973 -0.42957494
2.0503466 -0.097732097 -0.57708484
1.983456 -0.13513795 -0.49700552
1.983912 -0.091548622 -0.49801442
1.9849645 -0.086891882 -0.49890137
2.0351415 -0.027250355 -0.56053275
2.0356359 -0.025057236 -0.56105071
2.0354962 -0.0072460165 -0.56010783
2.0353074 -0.0057196058 -0.55974185
2.0354283 -0.0035321144 -0.55979311
2.0355568 -0.0015439964 -0.55986744
2.0347855 0.00042483583 -0.55920213
2.034585 0.0023781019 -0.55905032
2.0345631 0.0040975381 -0.55918127
2.0346584 0.0061188322 -0.55936503
2.0345588 0.0082645733 -0.55926305
2.0346816 0.0099909659 -0.55929649
2.0335386 0.043581307 -0.55792451
2.0334909 0.046111614 -0.55783623
2.033567 0.047990717 -0.55783767
2.0330451 0.050033718 -0.5575096
2.0330582 0.052155249 -0.55746919
2.0332382 0.05408746 -0.55788046
2.032814 0.056034371 -0.55753392
2.0321653 0.058530562 -0.5568319
2.0321751 0.060484536 -0.55679727
2.0320735 0.062382452 -0.55670053
2.0320055 0.064210527 -0.55664068
2.0363052 0.068297476 -0.56206095
2.0373399 0.070647992 -0.56292558
2.0376508 0.0727202 -0.56305891
2.0381222 0.075056471 -0.5639624
2.0382483 0.0771503 -0.56421715
2.0380254 0.079158932 -0.56382418
2.035439 0.11268024 -0.5609796
2.0350096 0.11434956 -0.56071091
2.0348721 0.11622208 -0.56024247
2.0343068 0.11861706 -0.55980855
2.0151796 0.13420735 -0.53675324
2.0134058 0.16579291 -0.53396344
-0.74707049 -0.050373368 2.7776008
-0.7498821 -0.03763216 2.7837219
-0.75028688 -0.024087688 2.7848887
-0.7521379 -0.012830941 2.7874656
-0.75373173 -0.0022091977 2.7897091
-0.75561261 0.0095311664 2.7895584
-0.74704826 0.022503244 2.7789021
-0.74463964 0.032103293 2.7756112
-0.7549234 0.043906391 2.7866864
-0.753681 0.056337893 2.7842524
-0.75775075 0.067266941 2.7863646
-0.75158912 0.079169564 2.7814257
-0.74439144 0.08986821 2.770848
-0.7471928 0.10101046 2.7759659
-0.73847181 0.11268058 2.7628968
1.9939097 0.30113307 -0.51181191
-0.76087117 0.33906552 2.7971916
-0.75658149 0.35389566 2.7913804
-0.75698853 0.36539865 2.7919905
-0.76097172 0.37678829 2.7945724
-0.76328039 0.39004201 2.7977121
-0.76030487 0.40013805 2.7936294
-0.75528592 0.4129785 2.7868252
-0.76784843 0.42528242 2.8040395
-0.76987034 0.43785524 2.8088424
-0.77106696 0.44985998 2.8092191
-0.77587312 0.46200389 2.8141763
1.927112 -0.23149648 -0.42624563
1.927392 -0.22792862 -0.42688796
1.9292963 -0.22171381 -0.42916065
1.9293379 -0.21906541 -0.4291704
1.9283276 -0.2072017 -0.42857
1.928876 -0.19159034 -0.42889836
1.9294547 -0.18943401 -0.42934409
1.9417006 -0.17619765 -0.44922405
1.9860651 -0.089081876 -0.49841297
1.9858705 -0.086902499 -0.49829641
2.0364742 -0.031858601 -0.559807
2.0384557 -0.023757687 -0.56210971
2.0387969 -0.021669699 -0.56253141
2.039016 -0.020142172 -0.56304026
2.0382879 -0.0072910488 -0.56165987
2.0357361 0.056013279 -0.55958045
2.0347917 0.064348951 -0.55887586
2.0378358 0.068364404 -0.56175148
2.0393252 0.075137243 -0.56352156
2.0397334 0.077348083 -0.56374532
2.0400999 0.079395466 -0.56446403
2.0403426 0.081606314 -0.56504077
2.0403574 0.083715469 -0.5650022
2.0403423 0.08591073 -0.5648734
2.0403883 0.087946765 -0.5649249
2.0404429 0.089981429 -0.56499833
2.0402725 0.091927096 -0.56512821
2.0395052 0.094134197 -0.56431139
2.0395138 0.09607818 -0.56427783
2.0395219 0.098022714 -0.56424421
2.0390551 0.10307668 -0.56315875
2.0384152 0.1046479 -0.56278479
2.0384152 0.10642698 -0.56275576
2.0381756 0.10850598 -0.56222427
2.0378873 0.11044429 -0.56183827
2.0369899 0.11285029 -0.56083751
2.0363343 0.11647676 -0.55998725
2.0357621 0.11861341 -0.5593344
2.0351481 0.12086692 -0.55818969
-0.75746953 -0.26430497 2.796499
-0.75100261 -0.25127074 2.7857227
-0.75769943 -0.24186616 2.7968969
-0.7667979 -0.18762496 2.8040428
-0.74170607 0.12602033 2.7799351
-0.74709022 0.13665122 2.781841
-0.75982451 0.14681698 2.7957022
1.9282296 -0.23320182 -0.42508805
1.9289185 -0.23039633 -0.42657831
1.9289973 -0.22740006 -0.42664996
1.9394864 -0.18293487 -0.44047388
1.949465 -0.17308792 -0.45258451
2.0519946 -0.095290676 -0.57510751
1.9850966 -0.13281198 -0.49517378
1.9925233 -0.099113204 -0.50403649
1.9861221 -0.094048463 -0.49672362
1.9869057 -0.087867118 -0.4976674
1.988476 -0.078044288 -0.50075448
1.9897981 -0.075699665 -0.5014236
1.9899503 -0.073527701 -0.50151306
2.0379469 -0.033313371 -0.55967647
2.0393436 -0.030965971 -0.5613718
2.0399747 -0.028376227 -0.56212741
2.0404613 -0.017129201 -0.5629189
2.0404046 -0.015084932 -0.56269872
2.0403903 -0.012900205 -0.56259209
2.0402493 -0.0091368919 -0.56248569
2.0365362 0.065973014 -0.55907816
2.0417731 0.092361219 -0.56453145
2.0413225 0.094347417 -0.56424522
2.0409074 0.096397236 -0.56404471
2.0406909 0.10255776 -0.56326038
2.0396743 0.10480142 -0.56241971
2.0396245 0.10670611 -0.56223989
2.0394254 0.10872533 -0.56161302
2.0389252 0.11064646 -0.56117523
-0.75494111 -0.27656993 2.8039947
-0.75754368 -0.26529086 2.8077717
-0.75827682 -0.25281104 2.8088067
-0.76115423 -0.24369818 2.8127856
-0.76348871 -0.23097925 2.8147604
-0.75464457 -0.22089671 2.8039594
-0.75998062 -0.20934887 2.8095622
-0.76337963 -0.19942513 2.8133504
-0.7489621 -0.18476792 2.7962511
-0.75106764 -0.17218877 2.7964711
-0.73929131 -0.15969308 2.7815931
-0.73697758 -0.14976019 2.78125
-0.74926955 0.14788692 2.795984
-0.74912018 0.16004018 2.7944722
-0.74646604 0.17036234 2.7895446
-0.7444405 0.18243688 2.7878985
1.9453708 -0.18058565 -0.44864088
1.9516343 -0.17563124 -0.45244274
1.9517522 -0.17209741 -0.45189705
2.0499933 -0.093892597 -0.57455266
1.993088 -0.099370323 -0.50249422
1.990635 -0.085091129 -0.50050139
1.9915631 -0.079722613 -0.50148451
1.9916172 -0.077669583 -0.50108802
1.9916929 -0.074622892 -0.50105751
1.9919498 -0.072564468 -0.50180823
2.0396421 -0.032872751 -0.55931729
2.0414119 -0.030067509 -0.56145394
2.042105 -0.027514784 -0.56254399
2.0425539 -0.025272869 -0.56295055
2.0425963 -0.023153286 -0.56299567
2.0425804 -0.02079824 -0.56287187
2.0423038 -0.018578315 -0.56238681
2.0419085 -0.016817227 -0.5621286
2.0415006 -0.014619842 -0.56185544
2.0416679 -0.01250378 -0.56190127
2.0416989 -0.0085151382 -0.56217802
2.042347 -0.0065192487 -0.5629589
2.042675 -0.0050255787 -0.56334537
2.0412908 0.034750357 -0.5624007
2.0412979 0.036340095 -0.56237876
2.0413098 0.038440429 -0.56233883
2.0410533 0.040310994 -0.56215745
2.0400298 0.049896292 -0.56065392
2.0396836 0.051473811 -0.56043732
2.0396941 0.053411953 -0.56040329
2.0395422 0.055540003 -0.55992186
2.0395775 0.057550199 -0.55994797
2.0391037 0.059620902 -0.55959165
2.0385396 0.061607614 -0.55900609
2.038496 0.063405722 -0.55882382
2.0384216 0.06542135 -0.55887401
-0.74158055 -0.30023724 2.8037131
-0.75589859 -0.29009765 2.8203847
-0.74929559 -0.27728507 2.8157506
-0.75586808 -0.26711747 2.8250043
-0.75543475 -0.25495344 2.8230481
-0.74831307 -0.24283607 2.8140149
-0.75630105 -0.23247154 2.823025
-0.75822538 -0.22131568 2.8256938
-0.75548625 -0.20908906 2.8220217
-0.74933004 -0.19829249 2.8153725
-0.74196386 -0.18660296 2.8060753
-0.74091518 -0.17471235 2.8047428
-0.73749566 -0.16294524 2.7988093
-0.74368721 -0.15088135 2.8044634
-0.74539626 -0.13700853 2.8034337
-0.73997545 -0.12597361 2.7952278
-0.73299128 -0.063158847 2.7866898
-0.76122689 -0.051303901 2.8226409
-0.75354946 -0.037371546 2.8152452
-0.73617804 -0.024332942 2.7959952
-0.74473512 -0.012783021 2.8056707
-0.74364889 -0.0038456279 2.8050313
-0.74141842 0.008614148 2.8033769
-0.74100357 0.023209307 2.8028591
-0.73852092 0.031887986 2.7994349
-0.7509656 0.04347194 2.814507
-0.74275726 0.053612627 2.8035164
-0.74407232 0.066605382 2.8072457
-0.74586064 0.077921495 2.8097582
-0.75206518 0.090582795 2.8170037
-0.75185108 0.1005291 2.8157234
-0.73845041 0.11236945 2.7995462
-0.73393697 0.12429605 2.7933109
-0.74346673 0.13563897 2.8065877
-0.75069714 0.14704229 2.8143826
-0.75444323 0.15982963 2.819042
-0.75616241 0.17045657 2.8214569
-0.74301738 0.18190128 2.8036211
-0.74789488 0.19393305 2.8088207
-0.74846905 0.20511997 2.8052301
-0.75074714 0.21648832 2.8074887
-0.74123955 0.22770467 2.7952242
-0.73725611 0.23903823 2.7902443
-0.76139385 0.34001881 2.8189869
-0.77040112 0.35577703 2.8328569
-0.75084132 0.3652195 2.8100984
-0.75370061 0.37717253 2.8152909
-0.7595728 0.39007697 2.8234546
-0.76998204 0.40347156 2.8356063
-0.75926828 0.41542077 2.8202155
-0.75247824 0.42422989 2.8107657
-0.74835533 0.4354133 2.806494
-0.76262641 0.44816655 2.8221853
-0.75524348 0.45989794 2.8155274
2.0611484 -0.18529688 -0.58085513
1.9336311 -0.20885421 -0.42701089
1.9533811 -0.1727566 -0.45130619
2.0534077 -0.091433428 -0.57500839
2.0535121 -0.091655992 -0.5722791
2.0243096 -0.097886644 -0.51911372
1.9930766 -0.084597796 -0.50094604
1.9938383 -0.081594661 -0.50206912
1.9939737 -0.079024583 -0.50213867
1.9937856 -0.076929271 -0.50159854
1.9937866 -0.074421033 -0.50153714
1.9937894 -0.072199039 -0.5014838
2.0436153 -0.027268697 -0.56196779
2.0436747 -0.0080597764 -0.56226903
2.0443339 -0.0056324098 -0.56315565
2.0449975 -0.0036097588 -0.56389368
2.0451005 -0.0012972476 -0.56389785
2.0447178 0.00094780652 -0.56363386
2.0445762 0.0031345044 -0.56350845
2.0445893 0.0050516627 -0.56347501
2.0446045 0.0071197161 -0.56344229
2.0442765 0.0093432292 -0.56320834
2.0443699 0.011261793 -0.56339294
2.0442524 0.013330474 -0.56345469
2.0444429 0.015235548 -0.56345153
2.0444002 0.017263388 -0.56352013
2.044476 0.019501774 -0.5633716
2.044415 0.021330625 -0.5634172
2.0446846 0.023001891 -0.56383735
2.0441978 0.025060317 -0.56343424
2.0436015 0.027809743 -0.5627057
2.0434937 0.029675813 -0.56260586
2.0434957 0.031871159 -0.56228065
2.0432975 0.033952877 -0.56212389
2.0434237 0.036132686 -0.56242216
2.0432098 0.037977889 -0.56233621
2.0432234 0.040075943 -0.56229651
2.0431743 0.041813292 -0.56230301
2.0425661 0.043810889 -0.5618524
2.0425847 0.045744702 -0.56155747
2.0425539 0.047651984 -0.56141472
2.041976 0.049804114 -0.56076771
2.0415642 0.052046783 -0.55999076
2.0413029 0.053855352 -0.55979723
2.0411911 0.056175821 -0.55915773
2.0411279 0.058174759 -0.55892295
2.0408504 0.060068227 -0.55879611
2.0401504 0.062024437 -0.55816096
2.0399899 0.064022958 -0.5578779
2.0399132 0.065962523 -0.5580073
2.0115805 0.17120083 -0.52464956
2.0118728 0.17283905 -0.52479959
2.0120363 0.17515095 -0.5247128
2.0106406 0.17766941 -0.5227077
-0.74925262 -0.30194351 2.8312783
-0.7523796 -0.29149979 2.832361
-0.74646902 -0.27759352 2.825845
-0.74626774 -0.26691693 2.8256917
-0.74376523 -0.25482297 2.8215387
-0.75212443 -0.24381571 2.8332133
-0.74962223 -0.23297471 2.83114
-0.75320727 -0.22159995 2.8355932
-0.74238884 -0.20939261 2.8221722
-0.74623668 -0.19838373 2.8260348
-0.74056226 -0.18698791 2.8181379
-0.73402673 -0.17460619 2.8091483
-0.73566705 -0.16426431 2.8114696
-0.73544574 -0.15106785 2.8112319
-0.73941499 -0.14035431 2.8167863
-0.74661243 -0.12807131 2.8240943
-0.73912138 -0.11500885 2.8118942
-0.74471587 -0.10581192 2.8199837
-0.73967981 -0.093783982 2.8117678
-0.73511064 -0.083088122 2.8054795
-0.75159055 -0.072451673 2.8297729
-0.73829532 -0.061279878 2.8138845
-0.73352599 -0.048898064 2.8113272
-0.73581123 -0.03718885 2.8122277
-0.73772264 -0.024558652 2.8149502
-0.73821664 -0.013595147 2.8156681
-0.74350512 -0.0031729895 2.8222792
-0.74306285 0.0092636775 2.8225102
-0.74574256 0.021737717 2.8238719
-0.74491781 0.032082558 2.8235643
-0.72904146 0.043005802 2.8030715
-0.73322558 0.054648027 2.8081362
-0.7317614 0.066014595 2.806932
-0.7297805 0.07778696 2.8042045
-0.73194569 0.0900997 2.8044493
-0.7426312 0.10061881 2.8193569
-0.74847376 0.11277112 2.8275273
-0.74588025 0.12368048 2.8248768
-0.74563849 0.13534591 2.8236427
-0.74748445 0.14674486 2.8262305
-0.74702352 0.15983547 2.8256073
-0.7340855 0.16940159 2.8068478
-0.74017298 0.1811707 2.8160982
-0.74707353 0.19350065 2.8257372
-0.74045473 0.20402676 2.8137493
-0.75063974 0.21612662 2.8271246
-0.73940438 0.22721164 2.8135612
-0.74117255 0.24011688 2.8139746
-0.73265988 0.25078475 2.8034396
-0.74697351 0.26332539 2.8220437
-0.75489259 0.27558878 2.8293846
-0.74974579 0.28439572 2.8228595
-0.73071021 0.29591098 2.7974389
-0.73593456 0.30831784 2.8047235
-0.74506348 0.31962606 2.8183575
-0.75162029 0.32994956 2.8259714
-0.76050466 0.34277472 2.8389614
-0.75522166 0.35474586 2.8344314
-0.75330895 0.36643538 2.8317745
-0.75172448 0.37737402 2.8294179
-0.74770129 0.38958153 2.8210571
-0.75688106 0.4024637 2.8310058
-0.75524151 0.41412517 2.8337343
-0.75298721 0.42408034 2.8312097
-0.75561225 0.43633044 2.8332853
-0.76718122 0.45114017 2.8437073
-0.74664611 0.45953912 2.8204594
1.9939386 -0.098787479 -0.49870944
1.9941779 -0.086253226 -0.4999049
1.9954679 -0.083429947 -0.50124985
1.9957868 -0.080826275 -0.50197732
1.9959341 -0.078282885 -0.50215214
2.0459332 -0.0054476038 -0.56306309
2.0463166 -0.0030636732 -0.56352156
2.0463655 0.0013488831 -0.56350029
2.0460143 0.0033260314 -0.56326473
2.0459566 0.0054240413 -0.56323284
2.0459461 0.007436973 -0.56313372
2.0459585 0.0095229335 -0.56309354
2.0460539 0.01375581 -0.56339896
2.0457249 0.019628055 -0.56308919
2.0449128 0.036224119 -0.56226963
2.0444682 0.038339183 -0.56197578
2.0444794 0.040266156 -0.56194198
2.0443614 0.042272329 -0.56155527
1.9977295 -0.10522241 -0.50200808
1.9965655 -0.1008678 -0.50045562
1.9951025 -0.0997703 -0.49867254
1.9955221 -0.086143263 -0.49954036
1.9969842 -0.083146535 -0.50110507
1.9973906 -0.080116481 -0.50193375
1.9979788 -0.077458479 -0.5025931
1.9983513 -0.075053893 -0.50305516
1.9985045 -0.072780982 -0.5035404
1.998299 -0.070666835 -0.50336593
2.0444241 0.051975988 -0.55957335
2.0439441 0.069034629 -0.55947822
2.0438609 0.070903189 -0.55917764
2.0438051 0.072912313 -0.55910736
-0.7392332 -0.40512007 2.8261831
-0.7314437 -0.39029068 2.8168266
1.9363767 -0.20043631 -0.42447537
1.9977961 -0.10127228 -0.49961931
1.9959226 -0.099729098 -0.49778083
2.0031509 -0.079911388 -0.5043813
2.0001059 -0.077136964 -0.5027982
1.938418 -0.078724347 -0.46644485
2.0003505 -0.072360024 -0.50312513
2.0004504 -0.069833405 -0.5038718
2.0468369 0.03827662 -0.56051207
-0.74141926 -0.47487092 2.8401632
-0.74794304 -0.46432582 2.8462753
-0.74032772 -0.45126912 2.837873
-0.74990821 -0.44168493 2.8509777
-0.74976921 -0.43051577 2.8535874
-0.75102776 -0.4178277 2.857254
-0.73594975 -0.40383583 2.84077
-0.72883165 -0.39106902 2.8342009
-0.74781954 -0.32516524 2.8532932
-0.75383615 -0.31517977 2.8585463
-0.74184829 -0.30198267 2.8429639
-0.7321139 -0.29015857 2.8313026
-0.7384811 -0.27851713 2.8383706
-0.7437157 -0.2676883 2.8446929
-0.74348676 -0.25581345 2.8451188
-0.74096704 -0.24330851 2.8409483
-0.74226832 -0.23298089 2.8429027
-0.73772681 -0.22135569 2.8365393
-0.74475843 -0.20927815 2.8465035
-0.74402595 -0.19915155 2.8466785
-0.74932134 -0.18807851 2.8529711
-0.75165629 -0.17639849 2.8555059
-0.73910278 -0.16543391 2.8433232
-0.73747861 -0.15216199 2.8414569
-0.73903507 -0.14059363 2.841645
-0.73459303 -0.12940896 2.8361981
-0.74527884 -0.11753514 2.8482509
-0.74609238 -0.10640399 2.8488746
-0.74173552 -0.094745211 2.8428295
-0.74340868 -0.084494166 2.8459327
-0.73642731 -0.07219243 2.8362117
-0.73622525 -0.060441107 2.8380728
-0.73846972 -0.048978217 2.8389661
-0.74335462 -0.037346348 2.8447804
-0.75331903 -0.02503269 2.8582294
-0.75457656 -0.013627993 2.8618636
-0.75827211 -0.0031112987 2.8663826
-0.74084622 0.0099062137 2.8420019
-0.74434096 0.021707436 2.8463776
-0.74420464 0.031724639 2.8467894
-0.7460804 0.043111511 2.8494527
-0.75132084 0.054141343 2.8552034
-0.74327236 0.066168353 2.8455927
-0.73392868 0.077954881 2.8363035
-0.75556344 0.090724267 2.8622484
-0.74801433 0.1000668 2.8494897
-0.74616712 0.11281367 2.8469284
-0.74611884 0.12372447 2.8468983
-0.75263375 0.13592792 2.8560536
-0.75173014 0.147147 2.8548031
-0.74654496 0.15976141 2.8478167
-0.73584354 0.17021149 2.8370476
-0.75106078 0.18291233 2.8539474
-0.75295669 0.19440453 2.8566105
-0.74957138 0.20466529 2.8536127
-0.74812412 0.21613596 2.852721
-0.74360204 0.22804295 2.8464165
-0.74579591 0.24119808 2.8494906
-0.74719608 0.25198972 2.8494093
-0.74384397 0.26322457 2.8439572
-0.73978341 0.27433938 2.8392458
-0.7485953 0.28579611 2.8506434
-0.74452132 0.29768962 2.845674
-0.74629259 0.31036565 2.8474109
-0.75067061 0.31999949 2.8526089
-0.75003529 0.33274522 2.8526645
-0.74549639 0.34422344 2.8472338
-0.75241882 0.35597354 2.8543446
-0.76439679 0.36853409 2.8699551
-0.76857066 0.38164467 2.8757339
-0.75975674 0.39075404 2.8650205
-0.74693459 0.40189821 2.8511708
-0.74210733 0.41403776 2.8429925
-0.74914676 0.42543826 2.8504882
-0.75359708 0.43740338 2.8575807
-0.74712813 0.44863492 2.8503094
-0.76229662 0.46407664 2.8688314
2.0557382 -0.086047702 -0.56779379
1.9988143 -0.10141647 -0.49857628
1.9970115 -0.09993761 -0.49655059
1.9944004 -0.09839838 -0.49380469
1.9963949 -0.087016135 -0.49543962
2.0032809 -0.073955752 -0.50602901
2.0025272 -0.071558394 -0.50311905
2.0024107 -0.069282971 -0.50277472
2.0020204 -0.067825049 -0.50175536
2.0469234 -0.027481336 -0.55780858
2.046819 0.043943316 -0.5582912
2.0469604 0.054818317 -0.55847228
2.0468357 0.056622162 -0.55836082
-0.72280568 -0.64445305 2.8310847
-0.72778654 -0.6353578 2.8392465
-0.72820437 -0.62262434 2.8366659
-0.74325824 -0.61339772 2.8580847
-0.71969819 -0.59739518 2.8291922
-0.73143291 -0.58877295 2.8463416
-0.72560143 -0.57657194 2.8363914
-0.73406386 -0.56518555 2.8464346
-0.72569388 -0.55215776 2.8362329
-0.74383056 -0.54526401 2.8621008
-0.73875415 -0.53222376 2.852082
-0.73876929 -0.51996666 2.8526063
-0.73822099 -0.50905156 2.8532734
-0.73951107 -0.49899173 2.8544707
-0.73738801 -0.48720634 2.8529246
-0.74078697 -0.47596174 2.8589079
-0.74604875 -0.46522546 2.8655252
-0.7422812 -0.45296866 2.8611853
-0.74631149 -0.44107807 2.8661861
-0.73438144 -0.42941713 2.8539953
-0.72793096 -0.41634449 2.8456049
-0.74510467 -0.40735212 2.8689513
-0.72997159 -0.32745966 2.8509524
-0.73672366 -0.31550223 2.8579178
-0.73330408 -0.30268544 2.8525128
-0.72650206 -0.28872269 2.8441591
-0.73781043 -0.27889651 2.8595626
-0.74096501 -0.26844811 2.8635433
-0.73944157 -0.25610828 2.8626034
-0.73447633 -0.24420288 2.8561509
-0.74040484 -0.2334681 2.8635182
-0.7331444 -0.22203831 2.8527827
-0.72676337 -0.2096107 2.8450541
-0.7385608 -0.19982007 2.8577416
-0.72159564 -0.18585339 2.8386714
-0.74095351 -0.17685407 2.8612516
-0.73526305 -0.16471292 2.8532326
-0.73240042 -0.1414243 2.8521781
-0.73031384 -0.13022521 2.8485405
-0.73021168 -0.11755232 2.8487289
-0.72934461 -0.10626306 2.8480563
-0.73613101 -0.094945394 2.8576739
-0.72991925 -0.084749386 2.8489738
-0.73185492 -0.07190416 2.8517702
-0.73374122 -0.060610697 2.8544493
-0.73092157 -0.048665561 2.8505592
-0.72902286 -0.037971057 2.8472145
-0.72623807 -0.0250108 2.8440552
-0.73046935 -0.014097027 2.8500462
-0.72781682 -0.0033846595 2.8463626
-0.72776121 0.0090518231 2.8463233
-0.73206043 0.021204503 2.8516099
-0.73124862 0.031506583 2.8513188
-0.73053503 0.042853244 2.8503487
-0.72586191 0.054098293 2.8438039
-0.73259044 0.066125356 2.8516924
-0.72693741 0.077788681 2.8453934
-0.72076571 0.089528695 2.8360283
-0.73393428 0.1000291 2.8528612
-0.74552345 0.11328259 2.867579
-0.74811077 0.12425993 2.8707683
-0.73162323 0.1350399 2.8493037
-0.73475754 0.14645469 2.852031
-0.73869509 0.15954661 2.8564417
-0.74543101 0.17149822 2.8643317
-0.73732412 0.18212129 2.853898
-0.73663014 0.19353151 2.853611
-0.72691625 0.20332928 2.8411193
-0.73651963 0.21569929 2.8535008
-0.73510993 0.22766736 2.8526969
-0.74226564 0.24078214 2.8632739
-0.73626953 0.25136179 2.8552959
-0.74059254 0.26293921 2.8592825
-0.73788303 0.27453917 2.8555593
-0.74532032 0.28660491 2.8660159
-0.74016094 0.29823971 2.8607614
-0.74036872 0.30934948 2.8602064
-0.74213141 0.31990594 2.8615499
-0.74307388 0.33271062 2.8628385
-0.73830348 0.34283724 2.8561597
-0.72733212 0.3538906 2.8407588
-0.7308321 0.36532772 2.8467953
-0.73657227 0.37953687 2.8537161
-0.73606956 0.38880736 2.8529558
-0.73706001 0.40049848 2.8516026
-0.73094571 0.41289201 2.8458169
-0.7417655 0.42536697 2.859936
-0.74574435 0.43809104 2.8637409
-0.74535465 0.44947663 2.8637125
1.9930983 -0.13470346 -0.48951414
2.0010571 -0.11176842 -0.49928141
1.9979439 -0.088339813 -0.49558574
2.0473988 0.019601686 -0.55777109
2.0474091 0.021374959 -0.55773598
2.0474231 0.023620168 -0.55769569
2.047435 0.025564391 -0.55765438
2.047446 0.027338959 -0.55761945
2.0474944 0.029939143 -0.55765998
2.0474746 0.031852521 -0.55753231
-0.74162465 -0.71814984 2.8602159
1.9644299 -0.17356101 -0.45204452
1.9906033 -0.14887187 -0.48351949
1.9949344 -0.13231722 -0.48967701
2.0489225 0.031773195 -0.55723637
1.9665254 -0.17104647 -0.45210344
1.9911705 -0.14917696 -0.48240572
1.991751 -0.14676972 -0.48346367
2.0591486 -0.084301002 -0.57011288
1.990092 -0.097811319 -0.48283452
2.0465446 0.067739576 -0.55176449
-0.74237692 -0.70895368 2.8912387
-0.72753865 -0.69402736 2.87202
-0.72945583 -0.68290126 2.8751128
-0.72957414 -0.6712268 2.8751893
-0.73125553 -0.65955436 2.8776643
-0.74534255 -0.6508466 2.8929005
-0.74236095 -0.64041752 2.8897099
-0.72682184 -0.62539142 2.8713303
-0.71729702 -0.61275262 2.8585033
-0.73416638 -0.60373795 2.8767996
-0.73343033 -0.59210867 2.8759029
-0.73548496 -0.58061063 2.8795161
-0.73247319 -0.56864583 2.8769152
-0.73665583 -0.55762953 2.8820677
-0.74163121 -0.54686677 2.8908358
-0.72910696 -0.53322941 2.873055
-0.73055875 -0.52117109 2.8733375
-0.72814852 -0.51030791 2.871984
-0.72663903 -0.4984107 2.8701303
-0.73321313 -0.48849156 2.8783441
-0.7355594 -0.47687355 2.8810143
-0.72956383 -0.46382254 2.8721874
-0.71821147 -0.45263088 2.8622582
-0.7235868 -0.44253191 2.8681257
-0.73516273 -0.43088123 2.8809814
-0.71575683 -0.41639364 2.8570147
-0.69761205 -0.34615779 2.8385613
-0.71849704 -0.33638355 2.8617063
-0.72453958 -0.32693782 2.8665869
-0.71650791 -0.31397641 2.8580215
-0.72564578 -0.30358127 2.8682418
-0.70675963 -0.23366114 2.8461304
-0.69849598 -0.21914648 2.8380122
-0.7489416 -0.21369022 2.8922758
-0.7382533 -0.095388964 2.8806751
-0.69365382 -0.08470542 2.8317966
-0.71554601 -0.072478786 2.8560746
-0.72731084 -0.061871104 2.8693566
-0.73537642 -0.048909187 2.8797004
-0.73400044 -0.038694695 2.8785043
-0.73072094 -0.025104102 2.875123
-0.72786963 -0.014542805 2.8692069
-0.72347188 -0.0036106161 2.8641739
-0.72399676 0.0089096688 2.8654578
-0.72429097 0.020844264 2.8642778
-0.72880149 0.031736277 2.8707061
-0.72719699 0.042723648 2.8701093
-0.72383934 0.05319725 2.86447
-0.71978951 0.065704413 2.8596985
-0.72439694 0.077174962 2.8654404
-0.7332077 0.089118265 2.8800104
-0.73134947 0.10015706 2.8774059
-0.72586495 0.11256453 2.8696618
-0.71767223 0.12295534 2.8580928
-0.72982943 0.13612799 2.8724968
-0.73031163 0.14701542 2.8731897
-0.72881138 0.15939809 2.8727241
-0.72873998 0.1708411 2.8738952
-0.72981501 0.18239728 2.8744922
-0.72417128 0.19241288 2.8674686
-0.72610372 0.20422912 2.8702264
-0.72153527 0.2153056 2.8637624
-0.72991252 0.22823089 2.8735037
-0.73081404 0.23996609 2.8729703
-0.73003775 0.25134042 2.8718617
-0.72910792 0.26238802 2.8724322
-0.74168736 0.27537623 2.8866887
-0.71648777 0.28501949 2.8567593
-0.73424411 0.29858431 2.8778174
-0.7376833 0.31005403 2.8827765
-0.73343003 0.32104063 2.8778718
-0.73891199 0.33276612 2.8848338
-0.73244804 0.34364733 2.8772769
-0.7274406 0.35578021 2.8695047
-0.72806925 0.36637557 2.8691952
-0.72642767 0.37825283 2.867522
-0.73193395 0.39077079 2.875809
-0.74339491 0.40284961 2.8897679
-0.74863386 0.41619223 2.8948143
-0.74990964 0.42784619 2.8955588
-0.75005019 0.44082156 2.8957031
-0.75275224 0.45269471 2.900044
-0.73939383 0.46280009 2.8863292
1.992528 -0.14903796 -0.48177931
1.9930209 -0.14667089 -0.48274723
1.9945226 -0.14323254 -0.48438412
1.9689171 0.013925028 -0.45479584
1.9689051 0.015841652 -0.45470878
1.9698584 0.01831262 -0.45598099
1.9702127 0.02126286 -0.45779142
1.9700526 0.024084352 -0.45751259
1.9712267 0.026743947 -0.45933151
1.9728136 0.029232517 -0.46034917
1.9736339 0.031728283 -0.4612371
1.9764011 0.034448687 -0.46714044
1.9774237 0.037454374 -0.46895713
2.0457847 0.10810342 -0.55034107
2.0447955 0.10994461 -0.54863083
-0.72461444 -0.71879435 2.8844454
-0.72495246 -0.70674318 2.8872755
-0.7366333 -0.69844198 2.9013834
-0.72870314 -0.67264384 2.8932724
-0.73264021 -0.66183001 2.896863
-0.72458112 -0.64961576 2.8856738
-0.724648 -0.63851339 2.8857543
-0.73676503 -0.6294632 2.9011991
-0.7375862 -0.61821568 2.9016275
-0.73358572 -0.60527301 2.8979836
-0.73581159 -0.59429169 2.9001064
-0.73367494 -0.58153224 2.8994091
-0.72895831 -0.56987113 2.8927236
-0.71775299 -0.5562436 2.8806465
-0.71500379 -0.54495877 2.8767087
-0.7218191 -0.53473341 2.8847148
-0.72276711 -0.52249253 2.8842568
-0.71436846 -0.51032037 2.8725078
-0.71690542 -0.49806195 2.876307
-0.71618772 -0.48691919 2.8747172
-0.72680748 -0.47742957 2.8868144
-0.72779739 -0.44216463 2.8894
-0.72925991 -0.43122464 2.8934171
-0.71935493 -0.35156909 2.8827319
-0.72240216 -0.33756348 2.8861809
-0.71798122 -0.32679266 2.8807435
-0.71948934 -0.073390789 2.8799973
-0.71274316 -0.061222464 2.8704581
-0.71088123 -0.049175613 2.8683465
-0.71325743 -0.03838297 2.8724544
-0.72039819 -0.025526583 2.8815296
-0.71301949 -0.015266292 2.8710716
-0.71099478 -0.0036237198 2.8682382
-0.71029407 0.0087418631 2.8672845
-0.72122389 0.019891681 2.8828754
-0.71663618 0.031985246 2.8763988
-0.71312213 0.04217428 2.8725843
-0.71343702 0.05219233 2.8719189
-0.71683228 0.065525353 2.8767946
-0.71734476 0.07658419 2.8775656
-0.71418285 0.088711925 2.8723824
-0.7116009 0.099772513 2.8683219
-0.71279091 0.11225287 2.8711855
-0.71833432 0.12283272 2.8791063
-0.71861756 0.13571435 2.8795626
-0.71442097 0.14576618 2.8707178
-0.71535724 0.16013551 2.8729441
-0.72304749 0.17082363 2.8822904
-0.72340429 0.18158573 2.8836145
-0.72528952 0.1930788 2.8863099
-0.72718716 0.20458885 2.8890185
-0.72261494 0.21569352 2.8825257
-0.71638542 0.22728467 2.8743169
-0.71523434 0.23902713 2.872143
-0.72407633 0.25158656 2.8817964
-0.72582102 0.26233223 2.8843098
-0.72405982 0.27419072 2.8818316
-0.73197484 0.28670257 2.8923542
-0.72390532 0.29806268 2.8839386
-0.72116923 0.30933231 2.8789299
-0.71797395 0.31988785 2.8731823
-0.72431725 0.33075821 2.882302
-0.7265926 0.34404853 2.8855181
-0.73714262 0.35736308 2.8976519
-0.73547888 0.36784855 2.8964531
-0.73242944 0.37933043 2.8938787
-0.7365762 0.39254695 2.8997173
-0.73508459 0.40303078 2.8976324
-0.72509283 0.41316211 2.8822763
-0.72603542 0.4259882 2.8848011
-0.72617221 0.43864098 2.8849232
-0.73682237 0.45153174 2.8961883
-0.7295627 0.46212724 2.8867977
2.0007749 -0.10086629 -0.4901517
2.0067227 -0.073543988 -0.49871826
-0.76109076 -1.2929007 2.9238427
-0.75733721 -1.2790434 2.9186563
-0.75391555 -1.2317734 2.9169383
-0.75511289 -1.2218093 2.9187682
-0.7488783 -1.2090852 2.9116492
-0.75234401 -1.1988739 2.9172306
-0.73618042 -1.1562235 2.8948133
1.9711304 0.021006394 -0.45413977
1.9717422 0.023641137 -0.4556863
1.971801 0.026244866 -0.45587772
1.9736891 0.031371158 -0.4579801
1.9751613 0.034527816 -0.45953307
1.9755903 0.036966056 -0.46051928
1.9966182 -0.14041391 -0.48325676
-0.76153421 -1.2963791 2.9358518
-0.7539643 -1.270586 2.9285293
-0.74428648 -1.2534339 2.9161208
-0.74848133 -1.2447484 2.92119
-0.74514508 -1.2329155 2.9181294
-0.74082494 -1.2208283 2.9140379
-0.74258173 -1.2102449 2.9165068
-0.74366051 -1.1602145 2.9172463
-0.74499416 -1.1487398 2.9171803
-0.75107747 -1.1393532 2.9243844
1.9728788 0.02352616 -0.45414391
1.9727536 0.02571943 -0.45394686
1.9732966 0.028624112 -0.45484734
1.9740351 0.031318761 -0.4557735
1.9746926 0.033910632 -0.45699143
1.9763342 0.036469951 -0.45889089
