ply
format ascii 1.0
comment PCL generated
element vertex 1470
property float x
property float y
property float z
element camera 0
property float view_px
property float view_py
property float view_pz
property float x_axisx
property float x_axisy
property float x_axisz
property float y_axisx
property float y_axisy
property float y_axisz
property float z_axisx
property float z_axisy
property float z_axisz
property float focal
property float scalex
property float scaley
property float centerx
property float centery
property int viewportx
property int viewporty
property float k1
property float k2
end_header
2.7264082 -0.023440417 1.1724691
2.7261755 -0.017804762 1.1714336
2.7256184 -0.011946409 1.1688875
2.725666 -0.0061497749 1.1693821
2.725961 0.0053461185 1.16968
2.7268236 0.016522419 1.17428
2.7269683 0.027324496 1.1746763
2.0393107 -0.13061954 -0.62152618
2.7263687 -0.44070292 1.150849
2.7259092 -0.43523633 1.149758
2.7251315 -0.42351198 1.149093
2.7252066 -0.41832811 1.1486328
2.725333 -0.41234094 1.1496148
2.7258966 -0.40692106 1.15165
2.7256997 -0.40188897 1.151053
2.7258945 -0.39593488 1.1507305
2.7258461 -0.39034504 1.150043
2.7261963 -0.38500154 1.1514584
2.7264729 -0.38006786 1.1520214
2.726511 -0.37472636 1.1525136
2.7255681 -0.36842248 1.1512722
2.7254941 -0.36300957 1.1507614
2.7258897 -0.35783246 1.1507576
2.7265899 -0.35214701 1.1533687
2.7267799 -0.34681332 1.1540613
2.7266748 -0.3407684 1.1534005
2.7264669 -0.33546215 1.1527249
2.7264917 -0.32970381 1.1523986
2.7262602 -0.32422537 1.1518203
2.7264879 -0.31849602 1.1534353
2.72662 -0.31348145 1.1534958
2.7272317 -0.30822691 1.1563143
2.7270768 -0.30239677 1.1549054
2.727159 -0.29682356 1.1545221
2.7271662 -0.29108018 1.1535167
2.7276368 -0.28578183 1.1559737
2.7275345 -0.27982351 1.1569033
2.7271943 -0.27448821 1.1559412
2.7270379 -0.26866293 1.1553943
2.7264047 -0.26284793 1.1531448
2.7265632 -0.25730926 1.153302
2.7268946 -0.25219324 1.1558362
2.7270818 -0.24670649 1.1559895
2.7270811 -0.2410396 1.1559595
2.727145 -0.23579347 1.1554843
2.7272618 -0.23019405 1.1554
2.7277718 -0.22498725 1.1575994
2.7277331 -0.21925871 1.1583278
2.7276621 -0.21320069 1.157752
2.7278366 -0.20733464 1.1574162
2.72786 -0.20207168 1.1572256
2.7279267 -0.19638607 1.1578079
2.7280135 -0.1907561 1.1591358
2.7280476 -0.18549742 1.1584973
2.728056 -0.17972222 1.1585828
2.7280581 -0.17439422 1.1581781
2.7278876 -0.16862777 1.1575207
2.7274306 -0.1633579 1.1570858
2.7278402 -0.15751764 1.1590587
2.7279174 -0.15191711 1.1591119
2.7281148 -0.14613444 1.1591653
2.7282457 -0.14068355 1.1591929
2.7282596 -0.13501656 1.1588608
2.7284091 -0.12922342 1.1602212
2.7286518 -0.12383914 1.1615225
2.7286303 -0.11799005 1.1617249
2.7286298 -0.11318561 1.1609226
2.7281704 -0.10707945 1.159885
2.7283278 -0.10184063 1.1601671
2.7286761 -0.096507177 1.1618308
2.7283776 -0.090374038 1.1610965
2.728199 -0.084915802 1.1604604
2.728024 -0.07915169 1.1599565
2.7283344 -0.073561311 1.1600615
2.7287343 -0.061961781 1.1627349
2.7288058 -0.056459595 1.1630605
2.7288656 -0.051348377 1.1626776
2.7290773 -0.045637347 1.1633022
2.7295012 -0.040270574 1.165539
2.7294009 -0.034801301 1.1647946
2.7294354 -0.028875442 1.1649762
2.7295141 -0.023490824 1.1646808
2.729532 -0.017344702 1.1638491
2.7289658 -0.01212482 1.1634525
2.7292099 0.0053138286 1.1649358
2.7292271 0.010703609 1.1639998
2.7293885 0.027214929 1.1659017
2.0122051 -0.057583544 -0.69009513
2.0124314 -0.056281894 -0.69013959
2.0132959 -0.053645898 -0.6878646
1.915962 0.13146327 -0.61647272
2.7343066 -0.44100282 1.1504601
2.7340317 -0.43569851 1.1500213
2.734869 -0.42398188 1.1524268
2.7350171 -0.41917807 1.1527642
2.7343686 -0.41326159 1.1513147
2.7344215 -0.40714043 1.1505669
2.7349994 -0.402051 1.1519297
2.7352173 -0.39687732 1.1540351
2.7351937 -0.39095625 1.1537265
2.7351868 -0.38550356 1.1533483
2.7347982 -0.38027197 1.1514708
2.7348924 -0.37439209 1.1512469
2.7350674 -0.36866549 1.1514626
2.7355943 -0.3635121 1.1543304
2.7353885 -0.35791287 1.1544542
2.7351782 -0.35267133 1.1538628
2.7348819 -0.34699339 1.153519
2.7352169 -0.34096339 1.1542099
2.7354574 -0.33594781 1.1549952
2.7358344 -0.32986462 1.1559902
2.7356288 -0.32475087 1.1548887
2.7358432 -0.31860805 1.154744
2.735954 -0.31352821 1.1546285
2.7353947 -0.30818596 1.1531305
2.7361321 -0.30259183 1.1567525
2.7362108 -0.29720652 1.1570196
2.7360055 -0.29165605 1.1563569
2.7355807 -0.2854639 1.1548653
2.7358525 -0.27999228 1.15517
2.7362993 -0.27484152 1.1569761
2.7363186 -0.26900259 1.156548
2.7364495 -0.26322427 1.157753
2.7365797 -0.25770542 1.1577853
2.736172 -0.25232407 1.1565856
2.7361341 -0.24673492 1.1563188
2.7365451 -0.24119765 1.1591675
2.7365675 -0.23613502 1.1589075
2.7366626 -0.23044766 1.1586442
2.7367542 -0.22503269 1.1583551
2.7369187 -0.21926852 1.1585517
2.7369518 -0.21376401 1.1595845
2.7370572 -0.2074527 1.16005
2.736757 -0.20240203 1.1595373
2.7367358 -0.19637164 1.1596333
2.7367098 -0.19101988 1.159027
2.7367966 -0.18534885 1.1586522
2.7368901 -0.17991781 1.1584588
2.7374609 -0.17442341 1.1615499
2.7375543 -0.1689872 1.1613547
2.7365909 -0.16342232 1.1602113
2.7373824 -0.14086176 1.1621423
2.7374628 -0.13494961 1.1617775
2.7375624 -0.12947729 1.161585
2.7376626 -0.12379472 1.161386
2.7379141 -0.11809947 1.1622525
2.7373857 -0.11344507 1.1609585
2.7374973 -0.10717432 1.1626854
2.7376988 -0.10168857 1.1630034
2.7377341 -0.073216565 1.1631063
2.7384214 -0.067875817 1.1644703
2.7381639 -0.06218823 1.1636634
2.7381656 -0.05666675 1.1657993
2.738251 -0.050969876 1.1655072
2.7380166 -0.045330398 1.1646765
2.7381682 -0.040093195 1.16492
2.738405 -0.02875264 1.1648177
2.7389786 -0.017596455 1.1671896
2.7387252 -0.0062875398 1.165755
2.73826 0.0055256281 1.1651385
2.7378829 -0.46716926 1.1421608
2.7377546 -0.45595282 1.1421814
2.7385056 -0.42300454 1.1450994
2.7378249 -0.4179045 1.1434381
2.7379715 -0.41219527 1.1442327
2.73804 -0.40620953 1.1441343
2.7381854 -0.40114981 1.1437392
2.7381682 -0.39530945 1.1438671
2.7386746 -0.39036855 1.1462916
2.7386422 -0.3845562 1.1464684
2.7388308 -0.37974191 1.1466208
2.7388463 -0.37383223 1.1468672
2.738879 -0.36849365 1.1461474
2.7384288 -0.36235297 1.145148
2.7387676 -0.3571887 1.1465549
2.7382956 -0.35178769 1.1463356
2.7384996 -0.34636092 1.1467276
2.7386208 -0.34013847 1.146757
2.7388067 -0.33486435 1.1462374
2.7390184 -0.32925096 1.1473866
2.7389505 -0.3242493 1.1485454
2.7390628 -0.31820953 1.1482751
2.7390928 -0.31292534 1.1476638
2.7393832 -0.30745959 1.1477048
2.7395785 -0.30198279 1.1475265
2.73896 -0.29610378 1.1468439
2.738687 -0.29078716 1.145823
2.7391672 -0.28529117 1.1493709
2.7397857 -0.27969027 1.1501173
2.7397952 -0.27422082 1.1493509
2.7393355 -0.26816431 1.1480844
2.7389958 -0.2623252 1.1466734
2.7393835 -0.25709835 1.1488925
2.7391646 -0.25180638 1.1496218
2.7391126 -0.24615918 1.1493709
2.7398686 -0.22987247 1.1520048
2.7399406 -0.2245187 1.1516019
2.7400537 -0.21879357 1.1514493
2.7402036 -0.21308529 1.151562
2.7397981 -0.20690347 1.1502417
2.7394762 -0.20167847 1.1494404
2.7403018 -0.19595017 1.1534063
2.7401288 -0.19032815 1.1527257
2.740489 -0.18486935 1.1530461
2.7402592 -0.16847198 1.1522597
2.7403183 -0.15710713 1.15291
2.7403457 -0.14563128 1.1529217
2.7404144 -0.14059429 1.1538287
2.7405007 -0.13427632 1.1541935
2.740941 -0.1290668 1.1549093
2.7407706 -0.12325975 1.1539917
2.740587 -0.11804875 1.1537168
2.7403979 -0.11243826 1.1528155
2.7411702 -0.10669982 1.1547372
2.7412195 -0.10160513 1.1543751
2.0751905 -0.046787545 -0.53975695
2.7402987 -0.090179458 1.1534425
2.740346 -0.085061662 1.1536714
2.7407026 -0.078766882 1.1548977
2.7407601 -0.072848476 1.1556464
2.7409594 -0.06760174 1.1562308
2.7411227 -0.056405835 1.1556312
2.7411137 -0.05072432 1.1553512
2.7410455 -0.045316279 1.1550457
2.741081 -0.039806008 1.1553741
2.7411852 -0.034147523 1.1559597
2.7415454 -0.028410917 1.157323
2.741008 -0.022596739 1.1561196
2.7410219 -0.017612414 1.1554478
2.7415423 -0.0059431973 1.1581806
2.7416525 -0.00046931123 1.1583902
2.7419107 0.0055007157 1.1585352
2.0804672 -0.03832747 -0.53379107
2.7462215 -0.45121229 1.1437318
2.7460711 -0.44042227 1.1437217
2.7460535 -0.4352479 1.1443937
2.7462118 -0.4291251 1.1451323
2.746115 -0.4233968 1.144266
2.746207 -0.41830915 1.1439768
2.7466271 -0.41276625 1.1453955
2.7472255 -0.4068675 1.1474104
2.7473223 -0.40171364 1.1471229
2.7472229 -0.39604187 1.1468036
2.7473023 -0.39065129 1.146655
2.7470407 -0.3850196 1.1460024
2.7473366 -0.37969467 1.1483228
2.7473066 -0.37451744 1.1480403
2.7469935 -0.36858884 1.1468599
2.7473183 -0.36294445 1.1475202
2.7475483 -0.35740533 1.1473901
2.7475879 -0.35187519 1.1468034
2.7479377 -0.34659016 1.1493508
2.7476521 -0.34095195 1.1483818
2.7474129 -0.33545864 1.1486287
2.74735 -0.32932389 1.1482031
2.7475519 -0.32411948 1.1481353
2.747745 -0.31824696 1.1484746
2.7481534 -0.31362933 1.1503874
2.7483008 -0.30810511 1.1510718
2.7478499 -0.30200672 1.1499176
2.7478759 -0.29669759 1.1491247
2.7478704 -0.29100308 1.1489742
2.747879 -0.28543139 1.1485327
2.7479639 -0.27950859 1.1495134
2.7477052 -0.27422854 1.1502771
2.7477555 -0.26862478 1.1502554
2.7481654 -0.25225267 1.1509337
2.7485573 -0.24120498 1.1522356
2.7484696 -0.23546387 1.1514319
2.7483983 -0.22974877 1.1513224
2.7485805 -0.22437394 1.1513532
2.748503 -0.2187036 1.1529833
2.748687 -0.21314366 1.1530303
2.7484231 -0.20719177 1.1522046
2.7488225 -0.20188402 1.1524913
2.7492642 -0.19030291 1.1536653
2.7485194 -0.18485461 1.1523767
2.7488699 -0.17962323 1.1526216
2.7491837 -0.16841441 1.1539187
2.7489512 -0.1629674 1.1535115
2.7490306 -0.15713045 1.154297
2.7492449 -0.15162049 1.1539931
2.7493613 -0.14594337 1.154816
2.7495332 -0.14067909 1.1551579
2.7494969 -0.13435788 1.1543782
2.7500165 -0.12873471 1.1565094
2.7491274 -0.12343183 1.1548542
2.7493856 -0.11808154 1.1558046
2.7493365 -0.11251696 1.1558448
2.7496927 -0.10686776 1.1561655
2.7497036 -0.10152563 1.1554132
2.7498453 -0.095557064 1.155459
2.7497287 -0.09040907 1.155498
2.7498386 -0.085137405 1.156872
2.7495873 -0.073003888 1.1565876
2.7497103 -0.067646153 1.1566133
2.7496881 -0.061922625 1.1568607
2.7502823 -0.056419782 1.1588384
2.7503433 -0.050754521 1.1587335
2.7505469 -0.045402694 1.158432
2.7505667 -0.0395406 1.1576835
2.7499938 -0.03416812 1.1564641
2.7502971 -0.028013619 1.1575079
2.7505393 -0.022857433 1.1588036
2.7507894 -0.01747171 1.1603136
2.7501535 -0.011281367 1.1581719
2.7503941 -0.0055415118 1.158323
2.0825207 -0.037996601 -0.535474
2.749548 -0.466829 1.1357285
2.7503052 -0.44542629 1.137936
2.7500672 -0.4395344 1.1372422
2.7494864 -0.43396643 1.1352357
2.750077 -0.42250291 1.1382536
2.7499378 -0.41750929 1.1382097
2.7498376 -0.4116545 1.1369931
2.7498565 -0.40549096 1.1372775
2.7498212 -0.40030724 1.1365862
2.7502263 -0.3949289 1.137545
2.7505763 -0.38980132 1.1393857
2.7507136 -0.38423219 1.1396658
2.7508252 -0.37898964 1.1399499
2.7502286 -0.37320858 1.1383852
2.7512622 -0.36818612 1.1419692
2.7510095 -0.3622041 1.141427
2.7504714 -0.35701895 1.1398898
2.75036 -0.33954421 1.1387056
2.7511549 -0.33454284 1.1410238
2.7510047 -0.3290956 1.1416082
2.7508464 -0.32340825 1.1409341
2.7509356 -0.31737664 1.14118
2.7510443 -0.31263691 1.1403819
2.7510159 -0.30713117 1.1403835
2.7513297 -0.30149472 1.1422212
2.751549 -0.29620394 1.1432073
2.7513623 -0.29078624 1.1425334
2.7512105 -0.27887687 1.1415644
2.7514541 -0.2735329 1.1430306
2.7508378 -0.26771501 1.1415551
2.750797 -0.26212397 1.1413106
2.7512827 -0.25156179 1.1428868
2.7513287 -0.24554981 1.1422157
2.7515073 -0.24041341 1.1425607
2.7516828 -0.23492095 1.1445745
2.7519193 -0.22954659 1.1452729
2.7520218 -0.22413839 1.145118
2.7519603 -0.21791904 1.1443456
2.7519395 -0.21240181 1.1442722
2.7520041 -0.2069315 1.1437985
2.752389 -0.20129363 1.1455594
2.751977 -0.19534825 1.143808
2.7521572 -0.18953009 1.1451477
2.7522435 -0.18439135 1.1449255
2.752146 -0.17893393 1.1450104
2.7521198 -0.17356147 1.14502
2.7519095 -0.1681264 1.1459484
2.7520037 -0.16233513 1.1460848
2.7519655 -0.15707199 1.1456211
2.7522402 -0.15109889 1.1459479
2.7522728 -0.1455918 1.1453235
2.7526431 -0.14016394 1.1466533
2.7530046 -0.13398214 1.1484835
2.7529774 -0.12838058 1.1474342
2.7530475 -0.12323631 1.1478437
2.7528694 -0.11757641 1.1473111
2.7525067 -0.09517996 1.1472219
2.7530823 -0.090224333 1.1485546
2.7529898 -0.084417827 1.1485648
2.7526703 -0.078274898 1.1480439
2.7532063 -0.072537273 1.1520903
2.7531619 -0.067382284 1.1516072
2.7529728 -0.061380751 1.1491543
2.7528636 -0.056089077 1.148154
2.7532568 -0.050531711 1.1500216
2.7535238 -0.045324672 1.1510506
2.7536681 -0.03945116 1.1511638
2.7537239 -0.033924304 1.1511033
2.7537584 -0.02791095 1.1516572
2.7539961 -0.022819135 1.1525369
2.7538774 -0.017235633 1.1514624
2.7537305 -0.010904829 1.152017
2.0864642 -0.02897382 -0.52520835
2.0874925 -0.028403401 -0.52590048
2.0880871 -0.026927711 -0.52486372
2.0817208 -0.0414881 -0.5438419
2.0819817 -0.039839439 -0.54307532
2.0870695 -0.030174928 -0.5332247
2.0887899 -0.028702341 -0.52813876
2.0893552 -0.026862411 -0.5253852
2.0931811 -0.015796553 -0.5147838
2.0937009 -0.014076633 -0.51453644
2.7584839 -0.47849903 1.1392876
2.7584212 -0.46738425 1.1384517
2.7588537 -0.45110109 1.1403869
2.7591805 -0.4463048 1.1404443
2.7587121 -0.44039679 1.1391637
2.7588089 -0.43470338 1.1391156
2.7583897 -0.42856914 1.1375567
2.7593729 -0.42351434 1.141005
2.7591166 -0.41843718 1.1409147
2.7594473 -0.41217005 1.1415812
2.7593691 -0.40652519 1.1408089
2.7589691 -0.40102145 1.1398548
2.7589598 -0.39585671 1.1401687
2.7594571 -0.39025432 1.1416
2.7596707 -0.38484308 1.1423616
2.7592237 -0.37956801 1.1411231
2.759187 -0.37360951 1.1403537
2.7591796 -0.36212149 1.1394513
2.7597294 -0.34589392 1.1421664
2.7593834 -0.34031534 1.141664
2.7594767 -0.33464202 1.141305
2.7596622 -0.32895237 1.141508
2.7598689 -0.32344028 1.1420143
2.7599728 -0.31828654 1.1418712
2.7605085 -0.31293568 1.1438026
2.7603331 -0.30760595 1.143088
2.7602613 -0.30167243 1.1426934
2.7600355 -0.29592699 1.1422383
2.7598877 -0.2906515 1.1429186
2.7602186 -0.28508216 1.1442207
2.7603884 -0.27935043 1.144417
2.7603724 -0.27373251 1.1440587
2.76035 -0.26801836 1.1439339
2.7607014 -0.26249138 1.1453965
2.760664 -0.25715756 1.1442827
2.7610922 -0.25158647 1.1462389
2.7612371 -0.24589296 1.1463004
2.7610157 -0.24081023 1.1455767
2.7608752 -0.23475368 1.1447127
2.7606876 -0.22953595 1.1446229
2.7609735 -0.22410189 1.1461784
2.7612915 -0.21822853 1.1468552
2.7614424 -0.21228617 1.1469244
2.7613342 -0.20723064 1.1463052
2.7610438 -0.20124242 1.1462243
2.7607474 -0.19541754 1.1457931
2.7608492 -0.18965989 1.1464337
2.7612143 -0.18460767 1.1478455
2.7613826 -0.17940745 1.1475161
2.7614141 -0.17389272 1.1468937
2.761584 -0.16816801 1.1471423
2.7618656 -0.16279997 1.1484944
2.7618549 -0.15681836 1.1499413
2.7612965 -0.15132464 1.1485077
2.7613375 -0.14546624 1.1481529
2.7614243 -0.13979569 1.1478684
2.7617681 -0.13419165 1.1493167
2.7620201 -0.12847182 1.1504463
2.7619584 -0.12320846 1.1495392
2.7622149 -0.11743549 1.1497463
2.7624588 -0.1118147 1.1505294
2.7618008 -0.10652514 1.1485739
2.7614424 -0.10055865 1.1481774
2.7622812 -0.095413297 1.1530371
2.7630579 -0.070777968 1.154628
2.762723 -0.061616626 1.15458
2.7624714 -0.055970192 1.15141
2.7621787 -0.050366338 1.1508627
2.7621057 -0.044877674 1.1504821
2.7622983 -0.039445911 1.1509696
2.7623782 -0.033706155 1.1503711
2.7628696 -0.028036471 1.1531315
2.7630463 -0.022369426 1.1534046
2.7630162 -0.016515119 1.1536641
2.7627857 -0.010824895 1.153071
2.7633107 0.028414974 1.1551228
2.083359 -0.041552108 -0.54451907
2.0839751 -0.039966457 -0.54368448
2.0869508 -0.031513292 -0.53569901
2.0910876 -0.028890692 -0.52863413
2.0913506 -0.027046433 -0.52760714
2.0919425 -0.025321567 -0.52511394
2.0921807 -0.023664553 -0.52400869
2.092731 -0.021958083 -0.52375686
2.0945554 -0.015922094 -0.51574695
2.094996 -0.013930693 -0.51471192
2.095835 -0.012094962 -0.51382703
2.7616749 -0.47701174 1.1298603
2.7620294 -0.46629697 1.1306292
2.7620277 -0.45527485 1.13122
2.762012 -0.44976324 1.1307287
2.7623591 -0.44513124 1.1322411
2.7626033 -0.43932378 1.1333948
2.7615716 -0.43354875 1.1310576
2.7622335 -0.42775226 1.1318048
2.761888 -0.42205232 1.130388
2.7623754 -0.41698089 1.1311376
2.761956 -0.41125253 1.130227
2.762996 -0.40543172 1.1327069
2.7625899 -0.39985773 1.132408
2.7630684 -0.39482367 1.1339701
2.7624981 -0.38370344 1.1322515
2.7625647 -0.37857959 1.1320754
2.7626815 -0.37292343 1.1330472
2.7631791 -0.36185417 1.1348823
2.7631729 -0.35625064 1.1345088
2.7631831 -0.35069621 1.1338351
2.7630253 -0.34546515 1.1352669
2.7625895 -0.33941549 1.1350391
2.7626452 -0.33409908 1.1346062
2.7626622 -0.32821426 1.134259
2.7628605 -0.32278994 1.1347401
2.7628572 -0.3171933 1.1337228
2.7631981 -0.31220958 1.1352464
2.7636268 -0.30668259 1.1365925
2.7637384 -0.30112147 1.1364254
2.7637403 -0.2954489 1.1367706
2.7636774 -0.29018116 1.1361967
2.7638566 -0.2843354 1.1371005
2.763555 -0.27877006 1.1371169
2.7635725 -0.27276063 1.1373643
2.7637959 -0.26748914 1.1370376
2.7632365 -0.26153511 1.1358228
2.7633164 -0.25641671 1.136043
2.7633801 -0.25074479 1.1355766
2.7641816 -0.245363 1.1394628
2.7638052 -0.24017069 1.1389123
2.7640069 -0.23447505 1.13853
2.7643034 -0.22891773 1.1389819
2.7640641 -0.22368021 1.1377275
2.7640529 -0.21758839 1.1373082
2.7645252 -0.21198602 1.1401826
2.7646761 -0.20676623 1.1403307
2.7645814 -0.20060715 1.1403377
2.7643316 -0.19499765 1.1393607
2.7647791 -0.18949762 1.1408776
2.7647715 -0.18405905 1.1417482
2.7641203 -0.17909545 1.1398968
2.7639856 -0.17328788 1.139612
2.7640162 -0.16778719 1.1389894
2.7641039 -0.16213238 1.1387087
2.7641747 -0.15653105 1.1388496
2.7651784 -0.15078714 1.1417303
2.7646549 -0.14531073 1.1413602
2.7648053 -0.13924882 1.1414241
2.7647672 -0.13390124 1.1403692
2.7646883 -0.12783518 1.140478
2.7650852 -0.12295928 1.1423768
2.7651017 -0.11709648 1.1415986
2.7653208 -0.11184186 1.142859
2.7655671 -0.10591275 1.1430041
2.765532 -0.056027226 1.1444215
2.7657197 -0.050475646 1.1448604
2.7652671 -0.044145234 1.14094
2.7651877 -0.039069135 1.1428009
2.7655771 -0.033601478 1.1445825
2.7652731 -0.027999276 1.1422511
2.7660012 -0.022361394 1.1457598
2.7661674 -0.016372813 1.1460239
2.7663238 -0.010913433 1.1462506
2.7663229 -0.0050481651 1.1454132
2.7659049 0.022810966 1.1456112
2.7656376 0.028665816 1.1451546
2.7657285 0.034034979 1.1450237
2.0868614 -0.035642128 -0.53774643
2.0876305 -0.03386135 -0.53685427
2.0961487 -0.015896162 -0.51797271
2.0965321 -0.013826041 -0.51651293
2.0971055 -0.012086016 -0.51472884
2.0986397 -0.013332047 -0.51658905
2.0989079 -0.011939763 -0.51505268
2.0992708 -0.010411805 -0.51335418
2.770304 -0.46675241 1.1319283
2.7707322 -0.4613651 1.133769
2.7707899 -0.45619783 1.133655
2.7708845 -0.45049646 1.1329607
2.7704334 -0.44513845 1.131909
2.770468 -0.43958667 1.1317322
2.7706413 -0.43416396 1.133
2.7700882 -0.42821062 1.1325531
2.7702794 -0.42256716 1.1329619
2.7702863 -0.41739166 1.1326885
2.7705021 -0.41157442 1.1327741
2.7706707 -0.40568432 1.1328824
2.7709734 -0.40077382 1.1339802
2.7714391 -0.38969219 1.1352038
2.7714093 -0.3841891 1.1347663
2.7716291 -0.37870657 1.1346718
2.7713654 -0.37322462 1.1341562
2.7714581 -0.36732942 1.134272
2.7718525 -0.36246201 1.1365359
2.7720363 -0.35703027 1.1369051
2.7721894 -0.3515605 1.1366788
2.7718885 -0.34543091 1.1358473
2.7719216 -0.33993515 1.1346799
2.7722611 -0.33459777 1.1366054
2.7722638 -0.32872733 1.1365842
2.771549 -0.32304937 1.1354759
2.771832 -0.31761095 1.1364756
2.771759 -0.31229758 1.1357014
2.7718081 -0.30675641 1.1354423
2.772073 -0.30119115 1.1369015
2.7722228 -0.29585478 1.1369557
2.7726851 -0.29048255 1.138742
2.7725084 -0.28467235 1.1377192
2.7727919 -0.27873647 1.1380517
2.773061 -0.27332473 1.1393267
2.7725351 -0.26783413 1.1383373
2.7732909 -0.26180717 1.1406589
2.7724965 -0.25659046 1.138267
2.7725866 -0.25084069 1.1380067
2.7722957 -0.2455295 1.1369327
2.7724664 -0.24024653 1.1372509
2.7726047 -0.234468 1.1387701
2.7728496 -0.22916776 1.1395606
2.7729654 -0.22353898 1.1397557
2.7728777 -0.21765013 1.1397326
2.772779 -0.21182233 1.1394619
2.773068 -0.20638703 1.1400784
2.7734413 -0.20076109 1.1405166
2.7737198 -0.19528167 1.1415076
2.7738109 -0.18956006 1.141232
2.7739649 -0.18437628 1.1414776
2.7741733 -0.17909838 1.1430877
2.7736015 -0.17338236 1.1414307
2.7735419 -0.1679194 1.1411738
2.7734802 -0.16225682 1.1409249
2.7737653 -0.15710558 1.1420008
2.7735443 -0.15072979 1.1413578
2.7737749 -0.14510228 1.1418761
2.7735004 -0.13945045 1.1420774
2.7738893 -0.13365388 1.1434331
2.7739427 -0.12793526 1.1428096
2.7741416 -0.12257507 1.1428286
2.7742279 -0.11719304 1.1425898
2.7739701 -0.11179291 1.1425569
2.7744784 -0.10592107 1.1449945
2.7753015 -0.016663212 1.1488204
2.7750068 -0.0050734323 1.1475331
2.77525 0.017782634 1.144248
2.7755339 0.023082498 1.1486359
2.7740364 -0.47673127 1.1235602
2.7744496 -0.47161379 1.125563
2.7744036 -0.46609348 1.1255546
2.7742012 -0.44941753 1.1249431
2.7741344 -0.44406685 1.124216
2.7746143 -0.43863398 1.1259084
2.7745292 -0.43325633 1.1250787
2.7747743 -0.42712492 1.1250095
2.7741683 -0.42130345 1.1234485
2.7739491 -0.41603976 1.1233474
2.7737427 -0.41034132 1.1243806
2.7740126 -0.40459174 1.1251651
2.7740624 -0.39936087 1.1245531
2.7742662 -0.39406043 1.1250342
2.7743435 -0.38825315 1.1246136
2.7749131 -0.38325697 1.1274613
2.7751896 -0.37822807 1.1284093
2.7749634 -0.37235883 1.1274745
2.7747827 -0.3671174 1.1275582
2.7743602 -0.36120299 1.1266942
2.7742662 -0.35568094 1.1264508
2.7751341 -0.35019714 1.1286483
2.7752838 -0.34475064 1.1293458
2.7750096 -0.33904299 1.1282562
2.7750745 -0.33369306 1.1278645
2.7752032 -0.32777056 1.1277386
2.7749352 -0.32217064 1.1279849
2.7750313 -0.31653437 1.1277241
2.7753785 -0.31209955 1.1291987
2.7759902 -0.30612898 1.1305579
2.7757106 -0.30070025 1.1294478
2.7754579 -0.29501411 1.1289437
2.7755337 -0.2895453 1.1281998
2.7759428 -0.28422561 1.1294428
2.7761285 -0.27822351 1.1307209
2.7761323 -0.27242154 1.130828
2.7761037 -0.26737604 1.1302009
2.7759683 -0.26100487 1.1301125
2.7756591 -0.25583741 1.129954
2.7760108 -0.25026724 1.1320558
2.7760286 -0.24539961 1.1318336
2.7760065 -0.23952901 1.1313409
2.775455 -0.23388465 1.1298405
2.7757177 -0.22831699 1.1301395
2.7757592 -0.2227321 1.1295234
2.7761109 -0.21689555 1.1311939
2.7761877 -0.21129285 1.1320738
2.7762985 -0.20577276 1.1325737
2.7761972 -0.20037445 1.1319668
2.7762833 -0.19447865 1.1316079
2.7764752 -0.18916284 1.1320807
2.7767158 -0.18352962 1.1327609
2.7770574 -0.17874262 1.134248
2.7770989 -0.17288357 1.1336434
2.7771025 -0.16737537 1.1337163
2.7775385 -0.16177249 1.1348319
2.7775726 -0.1564551 1.1348339
2.7769029 -0.15047912 1.1343311
2.7765863 -0.14470959 1.1340328
2.7764831 -0.13898155 1.1333865
2.7764885 -0.13317397 1.1325597
2.7766461 -0.12744081 1.1327306
2.7767694 -0.12234595 1.1342949
2.7770636 -0.11682308 1.1353748
2.7771919 -0.11137962 1.1354095
2.7771723 -0.1051704 1.1361424
2.7781549 -0.016482081 1.1383245
2.7780242 -0.010305981 1.1380974
2.7783718 -0.0051441411 1.1395999
2.7778726 0.012851929 1.1383315
2.7816446 -0.47736609 1.1232885
2.7823856 -0.46623397 1.1257037
2.7823498 -0.46056658 1.1259747
2.7825437 -0.45542806 1.12644
2.7824836 -0.44952568 1.1257114
2.7826462 -0.44444549 1.1252831
2.7828035 -0.43932134 1.1267948
2.7833614 -0.43379492 1.1285036
2.7831213 -0.42790774 1.1277547
2.7826815 -0.42219764 1.1268948
2.7824612 -0.41685095 1.1257448
2.7824938 -0.41107801 1.1253703
2.7823029 -0.40497234 1.1266769
2.7826223 -0.40021521 1.1279142
2.78269 -0.39457476 1.1278945
2.7828224 -0.38894534 1.1274102
2.7828772 -0.38354483 1.1273632
2.7831163 -0.37826407 1.1275166
2.7837937 -0.37293625 1.1294906
2.7839725 -0.36730975 1.1297257
2.7839913 -0.36172473 1.1290132
2.7840283 -0.35568726 1.1289501
2.7833598 -0.35053125 1.1274562
2.7833829 -0.34478405 1.127569
2.7834187 -0.33902755 1.1275704
2.7839079 -0.33417439 1.1298355
2.7841835 -0.32791272 1.1306047
2.7840109 -0.32230106 1.1295979
2.7838767 -0.31701311 1.1289486
2.7839229 -0.31206879 1.1303296
2.7840979 -0.30625558 1.1310079
2.7840519 -0.30080315 1.1304233
2.7843719 -0.29518878 1.1310112
2.7842317 -0.29005745 1.1307621
2.7840497 -0.28418025 1.1301439
2.7840724 -0.27811399 1.1299939
2.7847438 -0.27271235 1.1319677
2.7849545 -0.26746166 1.1326882
2.7850995 -0.26141396 1.1322761
2.7847509 -0.25583974 1.1313031
2.7839663 -0.25037888 1.1296357
2.7840161 -0.24499325 1.1295699
2.7846811 -0.2396422 1.1313162
2.7851484 -0.23445573 1.1338725
2.785233 -0.22862692 1.1335592
2.784802 -0.22311053 1.1327938
2.7848547 -0.2172983 1.1322446
2.7848639 -0.21122445 1.1320078
2.7852719 -0.20631917 1.1335208
2.7853642 -0.20053811 1.1344486
2.7855067 -0.19483338 1.1341536
2.7854795 -0.1892067 1.1343781
2.785394 -0.18383211 1.1336511
2.7858641 -0.17854126 1.1358322
2.7859092 -0.1731623 1.1364386
2.7856634 -0.16744445 1.1357499
2.7856376 -0.16160995 1.1347229
2.7854543 -0.15637764 1.133984
2.7854259 -0.15042228 1.1337662
2.7858799 -0.14497791 1.1344436
2.7856586 -0.13908875 1.1358707
2.7856607 -0.13304077 1.1360908
2.7855375 -0.12769179 1.1349254
2.7857718 -0.12218424 1.135029
2.7860601 -0.11692177 1.1352097
2.7855582 -0.11120698 1.1326759
2.785852 -0.10562606 1.1337348
2.7863958 -0.1001599 1.1367666
2.7870843 0.0011844567 1.1381752
2.7854865 -0.50398004 1.1163536
2.7861304 -0.48224208 1.1184301
2.7852652 -0.47046536 1.1164505
2.7855973 -0.45907521 1.1165913
2.7855687 -0.45392543 1.1161361
2.785835 -0.44839603 1.1169633
2.7859409 -0.4433234 1.1182473
2.7861016 -0.43800008 1.1186843
2.7860093 -0.43266442 1.1178544
2.7860241 -0.42640451 1.1172485
2.7863598 -0.42116016 1.1180829
2.7867537 -0.4160459 1.1202229
2.7870471 -0.41033456 1.1206468
2.7868543 -0.40440193 1.1198688
2.786253 -0.39897907 1.1179985
2.7863615 -0.39357546 1.1190456
2.7866638 -0.38784456 1.1203395
2.7863016 -0.38288012 1.1200358
2.7864699 -0.3775214 1.1203171
2.7865202 -0.37199986 1.119661
2.7866781 -0.36603639 1.1198291
2.7867589 -0.36061668 1.1203146
2.786854 -0.3551437 1.1205838
2.787214 -0.34979302 1.1219648
2.7873085 -0.34429386 1.1217473
2.7872496 -0.33849651 1.1214941
2.7872684 -0.3329784 1.1209031
2.7874823 -0.32731649 1.1216301
2.7876823 -0.32144031 1.1224281
2.7881119 -0.31664369 1.1238666
2.7880602 -0.31177828 1.1236806
2.7876039 -0.30556357 1.1228192
2.7874563 -0.30015868 1.1222985
2.7872734 -0.29423556 1.1222402
2.7875218 -0.28930336 1.1230177
2.7875986 -0.28362206 1.1237764
2.7874577 -0.27783754 1.1232481
2.7874739 -0.27166429 1.1229401
2.7875867 -0.26665989 1.1228722
2.7876534 -0.26067743 1.1223712
2.7879183 -0.25527689 1.1233062
2.7881153 -0.24996716 1.1240039
2.7885299 -0.24480288 1.125481
2.7885447 -0.23905516 1.1247113
2.7884026 -0.23351544 1.1240702
2.7880757 -0.22819357 1.1244146
2.7878697 -0.22232427 1.1250106
2.7877412 -0.21641707 1.1248212
2.7878287 -0.21078452 1.1245404
2.7879121 -0.20554987 1.1242739
2.788192 -0.19983064 1.125169
2.7884471 -0.19421116 1.1259381
2.7887154 -0.18872474 1.1268277
2.7887933 -0.18333222 1.1265342
2.7887933 -0.17767581 1.1262583
2.7887359 -0.17233124 1.1260011
2.7888756 -0.16702808 1.12758
2.78896 -0.16139112 1.1272918
2.789186 -0.15609275 1.1279241
2.7893195 -0.15002987 1.1278991
2.7892096 -0.14412314 1.1271937
2.7887471 -0.1386499 1.1259971
2.7891626 -0.13280138 1.1277612
2.7892153 -0.12750709 1.1296663
2.7884326 -0.12152109 1.1263204
2.7887781 -0.11646888 1.128149
2.7892749 -0.11151621 1.1298159
2.7895408 -0.0099381898 1.1294886
2.78985 -0.0040542651 1.1301066
2.7901905 0.00098686409 1.1321149
2.7943087 -0.48801699 1.1180204
2.7940817 -0.47694844 1.1179763
2.7941408 -0.47091651 1.1190872
2.7942126 -0.45991063 1.1186601
2.7939999 -0.45445922 1.1178068
2.7939553 -0.4488824 1.1176016
2.7942183 -0.44385442 1.1179223
2.7943943 -0.43823543 1.1180979
2.7947726 -0.43300882 1.1196405
2.794946 -0.42713422 1.1198604
2.7948129 -0.42133337 1.1189532
2.7950563 -0.41628167 1.1209272
2.7948463 -0.41023538 1.1202253
2.7954333 -0.40498328 1.1216247
2.7950721 -0.39951745 1.1209105
2.7952585 -0.39413783 1.1209503
2.7952733 -0.38853952 1.1203779
2.7952902 -0.38280499 1.1204875
2.7947509 -0.37768272 1.1204549
2.7950332 -0.37200806 1.1204437
2.7952244 -0.36621431 1.1198738
2.7953939 -0.36104727 1.1208913
2.7957065 -0.3555426 1.1228589
2.7957385 -0.34991929 1.1223062
2.7958858 -0.34425563 1.1223336
2.7962596 -0.3390778 1.1237671
2.7963548 -0.33344707 1.1235032
2.7959409 -0.32718667 1.1228651
2.7960491 -0.32155645 1.1222523
2.7960753 -0.31652451 1.1224762
2.7960637 -0.3118439 1.1225146
2.7958562 -0.30587521 1.1226363
2.7958195 -0.30009276 1.1234767
2.7962744 -0.29474154 1.1236544
2.7963045 -0.28953463 1.1232001
2.7959511 -0.28351733 1.12214
2.7964094 -0.27763599 1.1236849
2.7967362 -0.27230144 1.1254926
2.7967033 -0.26686445 1.1253349
2.7965195 -0.26087707 1.1247214
2.7965999 -0.25573805 1.1245135
2.7969213 -0.24986634 1.1255966
2.796983 -0.24465142 1.1251647
2.7974198 -0.23936178 1.1271032
2.7975843 -0.23396288 1.1273594
2.7971933 -0.2283293 1.1264124
2.7969046 -0.22259095 1.1256607
2.797111 -0.21695994 1.1265967
2.796701 -0.21096788 1.1254562
2.7968526 -0.20563285 1.126567
2.796921 -0.20014347 1.1260768
2.7971959 -0.18853436 1.1271868
2.7975273 -0.18317294 1.1286381
2.7976813 -0.17805378 1.1286941
2.7978404 -0.17245749 1.1282881
2.7978599 -0.16684692 1.1276292
2.7979414 -0.15558961 1.1275502
2.7978468 -0.14974248 1.1265166
2.7978938 -0.14392148 1.1270361
2.7981002 -0.13895857 1.1279995
2.7957203 -0.51857048 1.1067991
2.7957518 -0.5025453 1.1062492
2.7962093 -0.49201193 1.1081692
2.7968869 -0.4754034 1.1095999
2.7970471 -0.4697203 1.1096501
2.7968099 -0.46397728 1.1098024
2.7965024 -0.45852438 1.1096261
2.7965686 -0.45320061 1.1092387
2.7966866 -0.44775841 1.1090479
2.7970567 -0.44250342 1.1104304
2.7971442 -0.43739703 1.1109456
2.7973752 -0.43187198 1.1116542
2.7974172 -0.42565313 1.1114801
2.7975223 -0.42031574 1.1112086
2.7976198 -0.41523346 1.1110227
2.7979486 -0.40951741 1.1117556
2.7980247 -0.40379247 1.1118617
2.7982795 -0.39828655 1.1129967
2.79814 -0.3931607 1.1131179
2.7982385 -0.38762146 1.1133093
2.7983215 -0.38198012 1.1130475
2.7983947 -0.37680119 1.1125257
2.7988598 -0.3714245 1.1160045
2.7985039 -0.36589924 1.1148
2.7985761 -0.36029831 1.1143867
2.7986455 -0.35454649 1.1141764
2.7985196 -0.34914896 1.1142225
2.7984879 -0.34345877 1.1136599
2.7990696 -0.33812639 1.1162332
2.7991834 -0.33261818 1.1161245
2.7993333 -0.32671443 1.1162075
2.7992899 -0.32103691 1.1155978
2.7995205 -0.31574973 1.1156508
2.799546 -0.31132653 1.1159184
2.7998414 -0.30543265 1.1174514
2.8001268 -0.29997972 1.1183882
2.7998664 -0.29410699 1.1176645
2.7990417 -0.28876776 1.1154293
2.7992468 -0.282987 1.1172576
2.7994874 -0.27713946 1.1170765
2.8000762 -0.27153841 1.1179271
2.80023 -0.26615265 1.1180729
2.8004792 -0.26030451 1.1187173
2.79987 -0.25512862 1.1173245
2.7997024 -0.24911912 1.1175033
2.8000541 -0.2442248 1.1192627
2.8002954 -0.23881635 1.1195524
2.8005393 -0.23311473 1.1192265
2.8004687 -0.22760545 1.1189892
2.8004565 -0.22210351 1.1185151
2.8005898 -0.21664701 1.1185409
2.8006539 -0.20518914 1.1202551
2.8012166 -0.19969504 1.1209984
2.8015587 -0.1939379 1.1212072
2.8010073 -0.18267186 1.1207743
2.8010125 -0.17733982 1.1209834
2.8005719 -0.17197113 1.120243
2.800941 -0.16653247 1.1217406
2.8009086 -0.16072308 1.1207123
2.8009331 -0.15463027 1.1199733
1.8999858 0.13154432 -0.66493791
1.9025514 -0.098265447 -0.65042812
1.9043409 0.11889201 -0.60529453
1.8871863 -0.099750876 -0.65733522
1.874887 -0.13491693 -0.6719116
1.8752282 -0.13511541 -0.67594302
1.8763657 -0.064117089 -0.64992863
1.8847231 0.20621279 -0.6033895
1.8737758 -0.0007419925 -0.74936241
1.8104271 -0.0029718617 -0.65753579
1.8276674 -0.15842292 -0.61472857
1.8208712 -0.17535664 -0.59628576
1.7914293 -0.061350252 -0.64842492
1.8014259 -0.19255482 -0.58007675
1.7822371 -0.095352523 -0.66183656
2.7249346 -0.52152407 1.1458577
1.7507404 0.069884494 -0.54051936
1.7504351 0.072535515 -0.54042834
1.7593904 -0.061148949 -0.64836103
1.7595025 -0.059462551 -0.64848959
1.7597533 -0.057732563 -0.64814997
1.7740197 0.14652522 -0.45060062
1.7608556 -0.065009691 -0.64881426
1.7765385 0.14070933 -0.45090368
1.7622217 -0.068816669 -0.6484372
1.76211 -0.066970013 -0.64866334
1.7621397 -0.061003666 -0.6494121
1.7617565 -0.059242833 -0.65005916
1.7619574 -0.057467271 -0.6503213
1.761788 -0.055674281 -0.65065813
1.7634009 -0.06849774 -0.64853907
1.7633142 -0.06676019 -0.64880782
1.7633578 -0.065117098 -0.64881009
1.7633127 -0.0629775 -0.64933699
1.7632682 -0.061000202 -0.64987808
1.7633828 -0.059493478 -0.64998776
1.7629735 -0.057317045 -0.65061355
1.7628814 -0.055530969 -0.65085089
1.7652773 -0.050343327 -0.65138239
1.7659349 -0.068432324 -0.64970762
1.7657521 -0.066758752 -0.65003598
1.7656888 -0.065055914 -0.65053034
1.7657021 -0.062938869 -0.65071362
1.7656797 -0.061341029 -0.65106004
1.7656077 -0.059341393 -0.65154755
1.765437 -0.05186237 -0.65268385
1.7675387 -0.069004737 -0.64973694
1.7673938 -0.06688749 -0.64998192
1.7672108 -0.065214209 -0.65030974
1.7670554 -0.062807336 -0.65065521
1.7672153 -0.061341632 -0.65084052
1.7670566 -0.059404384 -0.65141851
1.7692373 -0.044982914 -0.65353668
1.7697401 -0.068947665 -0.65112329
1.769263 -0.067250676 -0.65163833
1.7696971 -0.06501171 -0.65160906
1.7695245 -0.063061081 -0.65227187
1.7695198 -0.061166745 -0.65251976
2.0083928 -0.13529201 1.5859282
2.0083771 -0.12972873 1.5868602
2.0085225 -0.12404961 1.586653
2.0087159 -0.11866483 1.5860482
2.0087161 -0.11185805 1.5870228
2.0087702 -0.10623908 1.5874528
2.0087013 -0.099960737 1.5888518
2.0088358 -0.095060371 1.5885973
2.008199 -0.088257872 1.5877889
2.0081494 -0.082659662 1.5871688
2.0082102 -0.077139989 1.5866355
2.0086026 -0.07159698 1.5872917
2.0082095 -0.065948024 1.5862211
2.0081217 -0.059758969 1.5860798
2.0081635 -0.053898841 1.5866446
2.0082936 -0.048591476 1.5864841
2.0084488 -0.04254213 1.586195
2.0085685 -0.03612002 1.5863236
2.0085201 -0.030282544 1.5874612
2.0086508 -0.024973864 1.5872972
2.0088124 -0.018471606 1.58705
2.008359 -0.013142793 1.5847331
1.7713442 -0.069465689 -0.65058225
1.7708385 -0.063136488 -0.65227753
1.7710055 -0.061240379 -0.65223944
1.7711148 -0.042922564 -0.65513486
2.0139501 -0.12954709 1.5850655
2.0137506 -0.12440321 1.5872552
2.013756 -0.11855747 1.5880584
2.0139205 -0.11205078 1.5878316
2.0136878 -0.10635466 1.5866407
2.0136263 -0.100158 1.5853001
2.0135415 -0.094955996 1.5866691
2.0139139 -0.088336237 1.5898145
2.0140457 -0.082834274 1.5911965
2.0134194 -0.076607548 1.5902212
2.0134306 -0.071752906 1.5908322
2.0139353 -0.065374933 1.5919757
2.013526 -0.059658043 1.5897254
2.013284 -0.053741071 1.5881014
2.012711 -0.048470575 1.5892721
2.0125229 -0.042264596 1.5888671
2.0126734 -0.036128923 1.5886868
2.0127184 -0.030320844 1.58916
2.0126708 -0.024850959 1.5902804
2.0130904 -0.018566251 1.5945933
2.0125163 -0.01314126 1.593069
2.0130477 -0.0065347869 1.5928701
2.013664 -0.0015679178 1.5927513
2.0131772 0.0042905924 1.5934881
2.0132656 0.010293843 1.5948402
2.0124884 0.016904445 1.591141
2.012033 0.022217935 1.5888152
2.0126152 0.027790962 1.5901946
2.0130284 0.033926714 1.5916017
2.0122502 0.040200233 1.5898191
2.0123527 0.045676444 1.5898459
2.0124705 0.051575352 1.5897303
2.0124528 0.057740696 1.5907588
2.0124774 0.063321464 1.5901836
2.0127177 0.068368517 1.5904018
2.0125678 0.08656799 1.5873886
2.0137119 0.099271998 1.589963
1.7717179 -0.040865645 -0.65603441
1.7906411 0.1429868 -0.46320975
1.7824847 -0.11203979 -0.57168603
1.7736175 -0.06915351 -0.65202683
1.7738436 -0.067160524 -0.65233624
1.7738934 -0.065696023 -0.65234333
1.773349 -0.063369922 -0.653193
1.7738289 -0.061432827 -0.65344155
2.0217199 -0.14119759 1.5782557
2.0214942 -0.1349763 1.5808427
2.0215919 -0.12938306 1.5809698
2.0217764 -0.12395544 1.580422
2.0218666 -0.11795384 1.5806444
2.0216796 -0.11165338 1.5803568
2.0211387 -0.10576463 1.5813214
2.021271 -0.099860616 1.5812206
2.0207899 -0.094205201 1.5791156
2.0207489 -0.088164382 1.5803065
2.0208926 -0.082489401 1.5800864
2.0208175 -0.076383986 1.5815376
2.0208516 -0.070946939 1.5802641
2.0209379 -0.065047964 1.5823401
2.0210612 -0.059504386 1.5839136
2.0209343 -0.053618636 1.5840055
2.0209026 -0.04804058 1.5832683
2.0210612 -0.041501883 1.583566
2.0215342 -0.035792407 1.58601
2.0211909 -0.029977335 1.5840282
2.0211992 -0.024683276 1.5862728
2.0205476 -0.018054271 1.5837775
2.0200851 -0.012815853 1.5831996
2.0202353 -0.0066865128 1.583012
2.0202143 -0.00093132304 1.583946
2.0203893 0.004119725 1.5834498
2.0202637 0.011011983 1.5854086
2.0203218 0.016700754 1.5857589
2.0206132 0.022504983 1.5860777
2.0204272 0.028435785 1.5866762
2.0201306 0.034628227 1.5897516
2.0202625 0.039944049 1.5895743
2.0204012 0.045630753 1.5893244
2.0207844 0.05210463 1.5874196
2.020525 0.057577305 1.5900832
2.020576 0.063372552 1.5906633
2.0196548 0.06863793 1.5868815
2.0202312 0.074702762 1.5882132
2.0195818 0.080509335 1.5872864
2.0199754 0.086655289 1.5879908
2.0198312 0.092481047 1.587276
2.0198398 0.098299704 1.5879256
2.0196581 0.10405488 1.5884848
2.0199816 0.11030831 1.5904411
2.0198326 0.11600861 1.5905986
2.0200267 0.12230644 1.5912033
2.0200689 0.12862989 1.5922852
2.0204899 0.13435915 1.5899297
2.0202754 0.13958654 1.5922836
2.0200977 0.1454889 1.5926433
2.0196631 0.15154758 1.5902818
2.0195694 0.17462009 1.5911962
1.7847459 -0.11175753 -0.57177544
1.775005 -0.071037501 -0.6517868
1.7751137 -0.068808563 -0.65209836
1.7750759 -0.067164309 -0.65231603
1.7749155 -0.065725155 -0.65265745
1.7746598 -0.063112631 -0.65351397
2.0274804 -0.13530484 1.5803543
2.0268471 -0.12938301 1.5797105
2.026427 -0.12377468 1.5786955
2.0265338 -0.1181687 1.5787209
2.0271335 -0.11171115 1.5817964
2.0270574 -0.10606256 1.5832134
2.0266113 -0.099855527 1.5809045
2.0266013 -0.094223581 1.5818199
2.0266821 -0.088073 1.5821401
2.0268154 -0.082315646 1.5820223
2.0271106 -0.076295093 1.5834675
2.026067 -0.070931494 1.5827081
2.0256507 -0.064993188 1.5801637
2.0256872 -0.059360508 1.5807172
2.0257406 -0.053706508 1.5811419
2.026345 -0.047994532 1.5840827
2.026376 -0.041621223 1.5832274
2.0263431 -0.035866246 1.5842897
2.0265982 -0.029638274 1.5848956
2.0265977 -0.024808986 1.5855753
2.0264838 -0.017909432 1.5874659
2.0266144 -0.012594003 1.5872942
2.0267646 -0.0065339203 1.5869861
2.0266733 -0.0012058074 1.5884508
2.0266938 0.0045059812 1.5891773
2.0263581 0.011268138 1.5900387
2.0259979 0.016882533 1.5877358
2.0262153 0.022497164 1.5887086
2.0258458 0.028454036 1.5896013
2.0256951 0.034426056 1.5878849
2.0256515 0.040238693 1.5873587
2.0260725 0.04569824 1.5866425
2.0258923 0.052205473 1.5874543
2.0251722 0.057980962 1.5886177
2.0253701 0.063443698 1.5879357
2.0260959 0.068789288 1.5898949
2.026051 0.074625179 1.5909649
2.0261681 0.081039526 1.5909973
2.0260956 0.086863473 1.5925108
2.0262318 0.092555583 1.5922474
2.0254524 0.09851452 1.5899396
2.0248675 0.10496853 1.5911031
2.0246499 0.11061645 1.589579
2.0246246 0.11605942 1.587871
2.0249476 0.12248255 1.5886867
2.0252132 0.12857141 1.5918959
2.0245833 0.13464095 1.5906531
2.025655 0.14559358 1.5922015
2.0251524 0.15165509 1.5954831
2.0250072 0.15790445 1.5945096
2.0254402 0.16386539 1.5949036
1.7777108 -0.076507941 -0.65152401
1.7778322 -0.074854843 -0.65164989
1.7774351 -0.073188901 -0.65228093
1.7778072 -0.071069561 -0.6526013
1.7775818 -0.069370821 -0.65307498
1.7773226 -0.067265637 -0.65349931
1.7771584 -0.065137975 -0.65426719
1.7773362 -0.063311338 -0.65449202
1.7770046 -0.035518624 -0.65901589
1.7773522 -0.033815339 -0.65885359
1.7769715 -0.03214328 -0.65928942
1.7765863 -0.030051697 -0.66014785
2.0347025 -0.14647236 1.5725735
2.0349281 -0.1408055 1.5717602
2.0346742 -0.13461226 1.5746256
2.034755 -0.12939581 1.5748062
2.0348194 -0.1236803 1.5752102
2.0347691 -0.11818936 1.5764304
2.0343764 -0.11179408 1.5755683
2.0337136 -0.1052679 1.573091
2.0339129 -0.099476285 1.5724763
2.0340016 -0.093928017 1.5726492
2.033931 -0.087834589 1.5741006
2.0339916 -0.081723258 1.5745728
2.0339897 -0.076435097 1.575388
2.0340893 -0.07095065 1.575464
2.0347617 -0.064885817 1.5779465
2.0345399 -0.0592512 1.5776876
2.0341287 -0.053312175 1.5777835
2.0342648 -0.047558658 1.5776612
2.0340502 -0.041616574 1.5775647
2.0337405 -0.035722844 1.5767516
2.0338898 -0.029598452 1.5765628
2.0338793 -0.023583634 1.5775304
2.0335057 -0.01776267 1.5763372
2.0333521 -0.012202991 1.5782332
2.0330372 -0.0065131956 1.5779338
2.0332444 -0.0013160874 1.5789515
2.0335431 0.0052172947 1.5777826
2.0334108 0.010801281 1.5795716
2.0333512 0.017323252 1.5809432
2.0331101 0.022316521 1.5818524
2.0337851 0.028650787 1.5811064
2.0336387 0.034384243 1.5813119
2.0335505 0.040261086 1.5812024
2.033262 0.045856267 1.5818483
2.0327435 0.052714054 1.5792117
2.0327187 0.058085434 1.578425
2.0324914 0.063536532 1.57938
2.0326915 0.069279037 1.5803866
2.0326939 0.075129822 1.5810293
2.0328481 0.081039608 1.5809178
2.0329838 0.086717121 1.5806543
2.0327642 0.092423797 1.5830473
2.0326471 0.098828338 1.5837088
2.0329871 0.10476856 1.5832478
2.0331409 0.11090133 1.5830373
2.0328975 0.11629076 1.5838501
2.0331721 0.12250096 1.5844451
2.033124 0.12852959 1.5855613
2.0329673 0.13439794 1.5835686
2.0322413 0.14002177 1.5833935
2.0319114 0.14565426 1.583891
2.0325413 0.15095818 1.582533
2.0322921 0.15753444 1.5826676
1.7878302 -0.12162378 -0.57992524
1.7878764 -0.1200997 -0.57992011
1.779091 -0.077114709 -0.65107799
1.7792829 -0.07493677 -0.65132189
1.7791724 -0.073053241 -0.65176088
1.7791677 -0.071300276 -0.6525774
1.7789518 -0.069346339 -0.65295577
1.7786829 -0.067494862 -0.65347421
1.778687 -0.065219402 -0.65429366
1.7779158 -0.046493832 -0.65819162
2.0398312 -0.14657536 1.5736173
2.0399425 -0.13491897 1.5745838
2.0398183 -0.12928365 1.574821
2.0394189 -0.12351887 1.573673
2.0394282 -0.11813314 1.5744303
2.0401673 -0.11122674 1.574934
2.040338 -0.10552982 1.5761148
2.0403452 -0.099391684 1.5770128
2.0403445 -0.094120815 1.5751454
2.0398211 -0.087717377 1.5732957
2.0393128 -0.081856683 1.5741869
2.0392385 -0.076333284 1.5755924
2.0386379 -0.070926525 1.5743072
2.0386236 -0.064897686 1.5740136
2.0386992 -0.059515189 1.57559
2.0389886 -0.053311266 1.5742863
2.0391157 -0.047424097 1.5742394
2.0391917 -0.041291788 1.5746022
2.0394764 -0.035681114 1.5732723
2.039264 -0.029708965 1.5758126
2.0388072 -0.023832815 1.5788336
2.0390813 -0.017604169 1.5789688
2.0386119 -0.012276454 1.5766737
2.0389388 -0.0062126983 1.5795726
2.039058 -0.00083194103 1.5817029
2.0387678 0.0054219118 1.5799483
2.0381491 0.010997665 1.577016
2.038084 0.017198205 1.5784466
2.0380945 0.022841629 1.5793258
2.0381551 0.028978543 1.5796455
2.0382857 0.034286477 1.5794635
2.0384371 0.040416684 1.5792621
2.038372 0.046580572 1.5807004
2.0383632 0.052573483 1.5815229
2.0385165 0.058040094 1.5811536
2.0386181 0.06397222 1.5813483
2.0386906 0.068602361 1.5814511
2.0386915 0.075670071 1.5825242
2.0387788 0.080916971 1.5826787
2.0381858 0.086737424 1.5812433
2.0381198 0.092674099 1.5807426
2.0382323 0.099217676 1.5827627
2.0383234 0.10498572 1.5828052
2.0376582 0.11075391 1.5821879
2.0377371 0.11635756 1.5823456
2.038198 0.12303485 1.5863951
2.038595 0.12877677 1.5823888
2.0380151 0.13444842 1.5828516
2.0381474 0.14012854 1.5825728
2.0378902 0.15176909 1.5862658
2.0379128 0.15749447 1.5868056
1.7742829 -0.057678659 -0.72182548
1.7906466 -0.12156541 -0.58185482
1.7906529 -0.11969604 -0.58179891
1.7819958 -0.082996085 -0.64994711
1.7820153 -0.081117727 -0.65071332
1.7817503 -0.079216205 -0.65122247
1.7816545 -0.077329993 -0.65188986
1.7816344 -0.074910171 -0.65245974
1.7813032 -0.073154792 -0.65321416
1.7815672 -0.071295835 -0.65357816
1.7813005 -0.069615267 -0.65414727
1.7813746 -0.067566305 -0.65447706
2.0490937 -0.15147339 1.5708996
2.0483315 -0.145494 1.5677023
2.0484207 -0.1408591 1.5691174
2.0489461 -0.13451435 1.5701364
2.0492742 -0.12859355 1.5731107
2.048738 -0.12308168 1.5717582
2.0485327 -0.11706842 1.5719911
2.0480828 -0.11144585 1.5722967
2.0472355 -0.10480261 1.5695902
2.0477819 -0.099159248 1.5697666
2.0475776 -0.093558632 1.5708665
2.0478449 -0.08747486 1.5735401
2.0481462 -0.081746347 1.5737313
2.0484648 -0.075831875 1.5739547
2.048476 -0.070622087 1.5729177
2.0480955 -0.064836144 1.5716178
2.0481575 -0.058701564 1.5727562
2.0487027 -0.052706771 1.5739462
2.048799 -0.047153406 1.5759312
2.0480263 -0.041194964 1.574181
2.0476198 -0.035165716 1.5775311
2.0476005 -0.029471716 1.5754844
2.0475566 -0.024119299 1.5736805
2.0475609 -0.017987749 1.5745397
2.0474706 -0.012083916 1.5742437
2.0479872 -0.0058656833 1.5748912
2.0474696 -0.00057256914 1.5734751
2.0472529 0.0053704865 1.575632
2.0471287 0.010910547 1.5754867
2.0475018 0.017171338 1.5763632
2.047344 0.023174923 1.5757408
2.0471087 0.028817965 1.5765013
2.046638 0.034569494 1.5775927
2.0469737 0.041303877 1.5786816
2.0472796 0.046639379 1.5779108
2.0476766 0.052780349 1.5790234
2.0474751 0.058481 1.5791068
2.0468082 0.064273536 1.5793809
2.0471103 0.069900662 1.5797009
2.0471551 0.075805992 1.5809997
2.047096 0.081484906 1.5814213
2.0476098 0.087368995 1.5834156
2.0471604 0.093438588 1.5836636
2.0475643 0.099440567 1.5824511
2.0470068 0.10527858 1.5797493
2.0467825 0.11162902 1.5797265
2.0463116 0.11677751 1.581627
2.0466654 0.12323758 1.5810961
2.0466635 0.12953277 1.5815006
2.046792 0.13464656 1.5832204
2.0468485 0.14054713 1.5843741
2.0471842 0.15228721 1.5825927
1.7833511 -0.081227779 -0.65075928
1.7830861 -0.07928057 -0.65116125
1.7832714 -0.07735195 -0.65183312
1.7828785 -0.075090431 -0.65248692
1.7829407 -0.073283635 -0.65296018
1.7828246 -0.071349062 -0.65361387
1.7827667 -0.069471106 -0.65379906
1.7826189 -0.067744277 -0.65450406
1.7821755 -0.03046741 -0.6631856
1.7864385 -0.087778717 -0.64926666
1.7861834 -0.085804343 -0.65012854
1.7862507 -0.083624154 -0.650608
1.7859685 -0.081482299 -0.65145445
1.785444 -0.075340606 -0.65331334
1.7851926 -0.073220275 -0.65451157
1.7852411 -0.071369737 -0.65460879
1.7851601 -0.069589049 -0.65486032
1.7834569 -0.0083972337 -0.66582727
1.7837604 -0.1110372 -0.66369939
1.7877268 -0.089963324 -0.64874178
1.7875701 -0.088037781 -0.64944893
1.7874429 -0.085860997 -0.65017176
1.7877487 -0.083751202 -0.65057904
1.7873944 -0.081794977 -0.65130877
1.7872146 -0.079776287 -0.65207011
1.787595 -0.078119673 -0.65216154
1.7867386 -0.075317606 -0.65340668
1.7869273 -0.073502444 -0.65398008
1.7868768 -0.071497731 -0.6541903
1.7849405 -0.044166133 -0.66148025
1.7900895 -0.092246793 -0.64910132
1.7900804 -0.090087146 -0.64962941
1.7899638 -0.088059612 -0.65033191
1.7898408 -0.085955091 -0.65099895
1.7897837 -0.083981372 -0.65164816
1.7896833 -0.081755348 -0.65236801
1.7894431 -0.07986591 -0.65304357
1.7893182 -0.078295074 -0.65364307
1.7895343 -0.075413421 -0.65395606
1.7893519 -0.073691532 -0.65492308
1.7877454 -0.055513006 -0.66001832
1.7837732 -0.071470931 -0.70957965
1.7915595 -0.09251415 -0.64899117
1.7918471 -0.09041255 -0.64929354
1.7915286 -0.088126294 -0.64984256
1.7913131 -0.086019002 -0.65078843
1.7913451 -0.084119894 -0.65133333
1.7913319 -0.082148455 -0.6520322
1.7910643 -0.080163419 -0.65254372
1.7909385 -0.078315631 -0.65360469
1.7908378 -0.074003071 -0.65467918
1.7900988 -0.051682726 -0.66078115
1.7925998 -0.1178636 -0.65938389
1.7944063 -0.094431274 -0.64874208
1.7941458 -0.092905469 -0.64965343
1.7939774 -0.090652213 -0.650262
1.7942312 -0.088656321 -0.65056431
1.7939378 -0.084348641 -0.65201974
1.7936288 -0.082366422 -0.65301895
1.7933053 -0.080534354 -0.65334427
1.7931849 -0.057831988 -0.66002816
1.7926582 -0.054051798 -0.66102564
1.7924992 -0.048409496 -0.66282028
1.7955738 -0.093163468 -0.64892566
1.7959535 -0.090978637 -0.64982802
2.0851195 0.086946353 1.5067623
2.0855832 0.092863925 1.5093652
2.0855124 0.10380813 1.5060037
2.0852823 0.11009103 1.5073259
1.7965384 -0.066102542 -0.65840054
1.7943882 -0.015739519 -0.6692329
2.0888491 0.08771798 1.502584
2.0881693 0.092941403 1.5019993
2.0875089 0.098601982 1.5014679
2.0889301 0.10355099 1.5010027
2.0891066 0.11175489 1.5109888
2.0873983 0.11710002 1.5124639
2.0879138 0.12256017 1.5089447
1.7960805 -0.056351185 -0.6613639
1.7969819 -0.044821549 -0.66378701
2.0922089 -0.14273809 1.4933408
2.0917547 -0.13669914 1.4910403
