ply
format ascii 1.0
element vertex 733
property float x
property float y
property float z
property float nx
property float ny
property float nz
property uchar diffuse_red
property uchar diffuse_green
property uchar diffuse_blue
end_header
2.03791 0.0686571 -0.522293 0.729222 0.13818 -0.67018 39 30 25
2.04826 0.0662245 -0.493643 0.498666 -0.469329 -0.72874 188 174 167
2.06314 0.0650892 -0.484373 0.893143 -0.367921 -0.258707 162 154 147
2.06452 0.0644436 -0.485366 0.648624 -0.450366 -0.613561 162 151 145
2.06556 0.0658591 -0.479771 0.96823 -0.231277 0.0950893 151 150 146
2.06561 0.065041 -0.479931 0.957796 -0.118852 0.261728 153 152 149
2.06507 0.0640988 -0.47693 0.998384 -0.0540436 0.017572 107 103 125
2.06406 0.0648199 -0.471217 0.951559 -0.139876 0.273808 9 9 62
2.06103 0.0640573 -0.466943 0.931467 -0.136976 0.337058 5 6 50
2.05739 0.0653849 -0.461781 0.979054 -0.15167 0.135826 5 5 28
2.05496 0.0640529 -0.457595 0.929211 -0.085199 0.359595 6 5 19
2.05709 0.0644079 -0.453899 0.86968 -0.490586 0.0546018 9 5 9
1.93623 0.0846205 -0.69848 0.999276 -0.0248799 -0.0287884 244 91 44
1.93999 0.082795 -0.694243 0.989891 -0.1396 -0.0250731 222 85 47
1.93089 0.0842216 -0.684221 0.780219 -0.287332 0.555607 158 95 80
1.92874 0.0844989 -0.678015 0.754082 -0.590717 0.287077 39 32 40
1.92739 0.0834716 -0.675852 0.881539 -0.390324 0.265586 38 29 42
2.01209 0.0766192 -0.622663 0.980776 -0.117103 0.156095 198 175 166
2.0365 0.0723688 -0.561197 0.863227 0.111547 -0.492338 218 200 188
2.0365 0.072463 -0.561184 0.867493 0.120837 -0.482549 218 201 189
2.03512 0.0706018 -0.531434 0.840539 -0.258066 0.476336 72 52 50
2.03428 0.0713558 -0.527025 0.915252 0.166872 -0.366699 74 59 56
2.0365 0.0701095 -0.524375 0.883646 0.0572098 -0.464647 50 38 35
2.03765 0.0716901 -0.522048 0.877973 0.0494716 -0.476147 47 40 36
2.06258 0.0672407 -0.49013 0.713746 -0.648211 -0.265309 203 161 143
2.06519 0.066942 -0.487802 0.639642 -0.760347 -0.112831 178 153 140
2.06423 0.0676357 -0.484372 0.89154 -0.364345 -0.269091 167 151 140
2.06575 0.0684857 -0.479784 0.892651 -0.398663 -0.210338 146 140 143
2.06568 0.0669847 -0.47742 0.895038 -0.38538 -0.224473 85 64 79
2.06586 0.0681079 -0.475064 0.958319 -0.266247 0.103621 13 11 64
2.06309 0.068106 -0.469307 0.921071 -0.308853 0.237148 6 8 48
2.05987 0.0663823 -0.463286 0.954109 -0.111933 0.277754 6 6 28
2.06133 0.0682908 -0.461476 0.894386 -0.146483 0.422631 7 6 16
2.05495 0.0663292 -0.454773 0.915625 -0.309767 0.256271 8 5 12
2.05642 0.0684123 -0.452529 0.836688 -0.543728 0.0656774 9 7 8
2.05854 0.0667 -0.45162 0.908333 -0.416856 -0.0340977 9 8 7
1.7415 0.113005 -1.03796 0.928785 -0.123459 0.34945 9 7 5
1.73961 0.111698 -1.03473 0.887613 -0.330255 0.321053 11 9 7
1.74221 0.113259 -1.03416 0.928048 -0.255361 0.271142 9 7 4
1.93102 0.0885137 -0.715931 0.934126 0.222609 -0.279022 215 83 39
1.93082 0.0876437 -0.70953 0.856092 0.369175 -0.361686 253 103 53
1.93319 0.0875194 -0.704952 0.795971 0.445003 -0.410369 253 103 53
1.93298 0.0876882 -0.705729 0.818229 0.475479 -0.323142 253 104 54
1.93287 0.0873968 -0.69806 0.708868 -0.183931 -0.680938 247 94 44
1.93254 0.0863401 -0.699535 0.738268 -0.083009 -0.669381 246 93 43
1.9419 0.0868719 -0.694315 0.999113 -0.0262248 -0.0329476 207 79 43
1.94021 0.0855417 -0.692127 0.998231 -0.0510876 -0.030429 206 78 42
1.93802 0.0874338 -0.690114 0.918202 0.0196726 -0.395623 204 79 38
1.93501 0.0860406 -0.68816 0.994205 0.104983 0.0231461 205 74 37
1.93591 0.0867824 -0.683411 0.98876 -0.147257 -0.025874 106 61 48
1.93567 0.0853518 -0.685996 0.99094 -0.131864 -0.0254739 170 77 52
1.93402 0.0868611 -0.679253 0.803157 -0.478548 -0.354867 67 38 36
2.01181 0.078519 -0.626673 0.934652 -0.106807 -0.339143 254 244 228
2.01251 0.0795329 -0.622696 0.980799 -0.123624 0.150835 196 173 165
2.01162 0.079638 -0.623603 0.829055 -0.10833 -0.548573 217 199 187
2.01153 0.0798954 -0.624055 0.826285 -0.12772 -0.548581 228 211 198
2.04437 0.0745443 -0.555909 0.930545 0.364714 -0.0326871 218 209 190
2.04689 0.0745761 -0.551146 0.938825 -0.29837 -0.171996 225 209 193
2.04751 0.0734869 -0.548793 0.982575 -0.0652768 -0.174026 248 233 217
2.04771 0.0748172 -0.546571 0.863195 -0.173484 -0.474128 222 207 193
2.04889 0.0738705 -0.543158 0.956469 -0.10828 0.271003 93 69 64
2.03386 0.0750944 -0.528986 0.870899 -0.0118575 0.49132 76 55 54
2.03646 0.0736971 -0.524238 0.928598 -0.0251384 -0.370234 55 43 40
2.03631 0.0731315 -0.52431 0.912213 0.00600419 -0.409671 54 43 39
2.03798 0.0733393 -0.519858 0.781947 -0.0513106 -0.621229 90 77 76
2.06384 0.0702083 -0.491108 0.771575 -0.585587 -0.248514 221 97 57
2.06818 0.0715118 -0.484922 0.979941 -0.196941 0.030492 199 106 81
2.06656 0.0690109 -0.479934 0.958835 -0.283936 -0.00397265 136 127 137
2.06683 0.0694053 -0.481536 0.956494 -0.291727 0.00378877 158 142 143
2.06675 0.0695602 -0.47742 0.93859 -0.326708 -0.110954 30 27 65
2.06512 0.0698451 -0.472207 0.990088 -0.140313 0.00624805 8 8 53
2.06442 0.0711623 -0.469338 0.871881 -0.489392 0.0178497 7 6 39
2.05638 0.0685958 -0.446382 0.84462 -0.531881 0.0609914 11 8 6
1.74533 0.115891 -1.04078 0.927774 -0.103326 0.358552 6 4 3
1.92227 0.0919467 -0.725996 0.848895 0.510274 -0.137833 22 14 13
1.92938 0.09119 -0.709516 0.854492 0.365094 -0.369526 247 117 70
1.93552 0.0887265 -0.695082 0.985607 -0.0597963 -0.158126 243 91 40
1.93598 0.0890163 -0.688024 0.979034 -0.2013 -0.031156 200 74 36
1.93643 0.0892892 -0.68672 0.988933 -0.146024 -0.0262571 184 76 46
1.9363 0.089657 -0.683339 0.98851 -0.148032 -0.030581 85 44 38
1.93642 0.090425 -0.685519 0.982303 -0.185675 -0.0246231 143 64 46
1.93671 0.0907195 -0.684492 0.988797 -0.146777 -0.027131 122 58 43
1.93644 0.0881627 -0.681349 0.992593 -0.0960722 -0.0743649 52 30 33
1.93741 0.0894623 -0.679806 0.975265 -0.10444 -0.194807 35 22 32
1.93732 0.0894988 -0.679859 0.99359 -0.0693944 -0.0892378 35 22 32
1.93673 0.0881115 -0.676573 0.604256 0.796668 -0.0139416 32 28 42
2.01322 0.0809249 -0.625274 0.698254 -0.071143 -0.712306 232 217 203
2.0122 0.0812225 -0.62675 0.990358 -0.082403 -0.11136 254 244 227
2.01287 0.0813791 -0.624172 0.986582 -0.149829 0.0648677 231 214 202
2.01053 0.0817895 -0.620627 0.817221 -0.0631259 0.572857 139 113 108
2.01411 0.082407 -0.618889 0.973452 -0.219472 -0.0649887 93 64 59
2.03889 0.0768854 -0.558776 0.815566 -0.162485 -0.555384 248 234 214
2.04428 0.0763243 -0.553583 0.886983 0.188574 -0.421546 229 216 198
2.04594 0.0776365 -0.55125 0.881805 -0.116459 -0.457009 252 238 221
2.04842 0.0774641 -0.546533 0.965043 -0.0669528 -0.253397 218 201 188
2.04853 0.0761082 -0.544309 0.841546 -0.189138 -0.505992 152 128 120
2.0485 0.0772724 -0.542108 0.899422 -0.0714534 0.431201 76 44 41
2.04845 0.0774394 -0.542157 0.874145 -0.0672127 0.480991 77 46 42
2.03932 0.0774127 -0.536409 0.939013 -0.338951 0.0580216 63 26 26
2.0407 0.0776706 -0.534169 0.949463 -0.038483 0.311512 54 21 21
2.0372 0.07633 -0.531401 0.943976 -0.24855 0.217099 65 38 37
2.0333 0.0767821 -0.528249 0.853297 -0.196376 0.483032 69 46 45
2.03648 0.0765832 -0.523712 0.916358 -0.0829094 -0.391682 59 46 44
2.03631 0.0765664 -0.523621 0.901884 -0.107224 -0.418458 59 46 44
2.03757 0.0750434 -0.522063 0.916093 -0.067465 -0.39525 56 47 43
2.03967 0.0747653 -0.517281 0.820949 -0.170155 -0.545059 49 36 39
2.04141 0.0759897 -0.508803 0.659408 0.751785 -0.000189759 33 21 20
2.06297 0.0728656 -0.491602 0.833967 -0.505122 -0.222148 239 91 46
2.06581 0.0740479 -0.491201 0.93936 -0.167566 -0.299205 236 89 42
2.06914 0.0716696 -0.487168 0.996483 -0.0796924 0.02589 219 95 63
2.06741 0.0723165 -0.477424 0.94109 -0.338129 0.00430322 16 13 62
2.05783 0.0717541 -0.446637 0.808091 -0.583932 0.0775372 22 18 16
1.92917 0.0950634 -0.714189 0.814166 0.432846 -0.387011 247 104 59
1.93021 0.0925354 -0.705859 0.959708 -0.0965618 -0.263886 253 153 114
1.92922 0.0947915 -0.702539 0.980393 0.191544 -0.0462648 252 126 88
1.93498 0.0935212 -0.698536 0.962332 0.261997 -0.0726188 249 96 48
1.9368 0.0923035 -0.694907 0.873172 -0.0821024 -0.480448 238 87 39
1.93441 0.0936829 -0.69648 0.757341 -0.0677601 0.649494 244 90 40
1.93639 0.0923715 -0.689344 0.769826 0.0290952 0.63759 208 77 39
1.93644 0.0911015 -0.685857 0.988037 -0.152217 -0.0247453 147 65 45
1.93664 0.0925395 -0.683156 0.98842 -0.14921 -0.0276096 63 34 31
1.93688 0.0910247 -0.681388 0.990852 -0.111878 -0.0754747 41 25 31
1.93751 0.0923894 -0.679139 0.912942 -0.215964 -0.34626 26 21 34
2.01306 0.0854483 -0.623452 0.973816 -0.145763 0.174455 218 199 189
2.01601 0.0837211 -0.617637 0.989884 -0.14134 -0.0123147 79 57 51
2.03824 0.0807878 -0.559371 0.954921 -0.107833 -0.276584 248 236 216
2.04335 0.0787696 -0.556702 0.947668 -0.27828 -0.156479 252 241 219
2.04501 0.0801241 -0.554363 0.867153 -0.105709 -0.486694 251 237 217
2.04691 0.0799901 -0.550496 0.936928 -0.0386049 -0.347384 251 236 218
2.04881 0.0786502 -0.544312 0.952741 -0.125263 -0.276757 146 120 113
2.04907 0.0787542 -0.544331 0.963902 -0.0855081 -0.252153 143 117 110
2.04888 0.0786991 -0.544379 0.9454 -0.0997705 -0.310264 148 122 115
2.04933 0.0799328 -0.542076 0.945463 -0.128005 -0.299523 71 36 34
2.03837 0.0796486 -0.531384 0.945137 -0.00877969 0.326558 53 21 22
2.03864 0.0795336 -0.531333 0.906582 -0.0960843 0.410947 54 22 22
2.03858 0.0800402 -0.522198 0.598951 -0.507383 -0.619533 53 42 40
2.03916 0.0792001 -0.521151 0.855675 -0.269301 -0.441924 47 38 36
2.03924 0.0776341 -0.51991 0.645091 -0.406111 -0.647249 48 39 38
2.04116 0.078646 -0.513359 0.960442 -0.125413 -0.248641 44 25 25
2.04074 0.077355 -0.511105 0.983002 -0.00654785 -0.18348 28 19 18
2.04198 0.0790047 -0.508838 0.814152 0.00270255 -0.580645 30 20 18
2.04322 0.0774718 -0.501603 0.942348 -0.313944 -0.115842 187 79 53
2.05738 0.0759253 -0.494874 0.516856 -0.311848 -0.797252 247 99 53
2.06274 0.0756509 -0.493465 0.797615 -0.210674 -0.565179 245 94 48
2.06625 0.0752216 -0.489003 0.935138 -0.224311 -0.274228 230 87 42
2.06427 0.0767718 -0.491254 0.878882 -0.228328 -0.418847 244 92 44
2.06588 0.0764173 -0.486808 0.903941 -0.258548 -0.340652 226 85 39
2.06913 0.0759074 -0.481901 0.962134 -0.271931 0.0187753 92 40 72
2.06883 0.075631 -0.480006 0.95838 -0.283642 0.0324699 29 19 76
2.06813 0.0742699 -0.478873 0.926198 -0.374435 0.0442362 21 16 72
2.06705 0.0738451 -0.474732 0.954521 -0.295939 0.0361836 9 8 52
1.93071 0.0962562 -0.705184 0.871854 -0.483625 -0.0773151 252 152 115
1.93422 0.0965178 -0.698464 0.838297 0.156449 -0.522285 250 96 45
1.9359 0.0951484 -0.694639 0.767368 0.0405805 -0.639921 238 86 39
1.93647 0.0939449 -0.692422 0.866732 -0.126225 -0.482538 229 83 41
1.93677 0.0954473 -0.689433 0.970588 -0.0408404 -0.237256 200 76 42
1.9366 0.0939954 -0.689645 0.988739 -0.0941987 -0.11628 208 77 41
1.93735 0.0938703 -0.686824 0.993295 -0.111787 -0.0294664 149 59 38
1.93709 0.0954008 -0.683193 0.98845 -0.149017 -0.0275665 50 27 32
1.93716 0.0939173 -0.68109 0.992372 -0.0965186 -0.0766911 27 20 33
1.93822 0.0952107 -0.679952 0.896757 -0.231204 -0.377323 21 18 34
2.01352 0.0867787 -0.621221 0.992476 -0.0945 -0.0778501 142 123 113
2.03771 0.0822353 -0.56157 0.938454 -0.12679 -0.321293 217 193 182
2.03935 0.0821287 -0.557059 0.91677 -0.0936333 -0.388285 252 238 217
2.04098 0.0833616 -0.556128 0.940841 -0.0776104 -0.329841 252 239 217
2.04739 0.0826463 -0.551233 0.957662 -0.0760217 -0.277678 252 236 218
2.04834 0.0814633 -0.548932 0.981224 -0.0806705 -0.175192 248 230 213
2.04887 0.0827423 -0.546661 0.978397 -0.0815086 -0.189989 217 200 186
2.03643 0.0815584 -0.528107 0.86484 -0.102867 0.491397 63 40 39
2.03739 0.0820323 -0.52301 0.912235 0.0393291 -0.407775 57 46 44
2.04056 0.0803463 -0.520215 0.941662 -0.148428 -0.302061 29 21 20
2.03985 0.08181 -0.521093 0.946985 -0.0444536 -0.318188 33 24 23
2.03961 0.0819043 -0.521219 0.956245 0.0056932 -0.29251 35 25 24
2.04134 0.0815688 -0.51838 0.972917 -0.128253 -0.192313 20 14 15
2.04123 0.080219 -0.516137 0.937305 -0.292969 -0.188756 40 24 25
2.04186 0.0806187 -0.511057 0.977948 -0.101754 -0.182382 26 18 16
2.04425 0.0805833 -0.50653 0.989118 -0.146737 0.0107023 32 17 16
2.04403 0.0814716 -0.504222 0.992383 -0.121894 0.0178046 79 29 21
2.04394 0.0799842 -0.501629 0.964877 -0.201513 -0.168537 208 83 50
2.05696 0.078881 -0.495031 0.863707 0.139154 -0.484403 250 98 51
2.06783 0.0777424 -0.488946 0.91352 -0.107186 -0.39242 214 82 37
2.06628 0.0791066 -0.48681 0.913423 -0.170086 -0.36977 216 83 33
2.06946 0.0773851 -0.484571 0.892965 -0.16198 -0.419972 147 54 31
2.06806 0.0772316 -0.477314 0.961549 -0.252805 0.107296 7 12 67
2.05778 0.078517 -0.4587 0.834239 -0.0757774 -0.546171 9 5 10
2.05851 0.0769344 -0.456523 0.913424 0.343893 -0.217701 9 7 8
1.92575 0.0991148 -0.715662 0.822159 0.354532 -0.445378 235 93 45
1.93096 0.0980025 -0.708099 0.901297 -0.227136 -0.368881 250 132 85
1.93346 0.0994344 -0.706068 0.775902 -0.62002 -0.116412 252 109 58
1.93367 0.0994601 -0.703177 0.915965 -0.323721 -0.237094 253 104 51
1.93353 0.0995318 -0.698492 0.838494 0.213501 -0.501343 251 96 41
1.93597 0.0981203 -0.694784 0.854576 0.0955964 -0.510452 239 87 39
1.93441 0.0984384 -0.695867 0.698886 0.14326 -0.700739 243 89 39
1.93636 0.0968752 -0.69213 0.883803 0.0246438 -0.467209 227 84 42
1.93692 0.0989862 -0.689866 0.891128 0.0778297 -0.447028 187 71 40
1.93691 0.0985293 -0.689515 0.922833 0.0543887 -0.381341 182 70 39
1.93492 0.0969578 -0.687318 0.942268 0.0801864 -0.325116 155 63 40
1.93753 0.0982628 -0.683211 0.97928 -0.0726061 -0.189046 39 22 29
1.93781 0.0967367 -0.681513 0.98933 -0.0944713 -0.11091 24 18 32
2.01288 0.0905685 -0.624178 0.993459 0.0590913 -0.0977091 240 232 218
2.01395 0.0879764 -0.608389 0.764449 -0.398898 0.506456 77 62 55
2.0142 0.0888387 -0.60209 0.577 -0.261525 -0.773742 92 81 74
2.01336 0.0895784 -0.600916 0.650384 -0.211414 -0.729592 87 75 69
2.01451 0.0885275 -0.602218 0.578056 -0.27466 -0.768384 92 80 74
2.01377 0.0889625 -0.601677 0.583249 -0.243276 -0.775008 92 80 73
2.01409 0.0876516 -0.60001 0.566866 -0.344363 -0.748383 75 63 58
2.01254 0.0882033 -0.598807 0.714321 -0.054293 -0.697709 78 67 58
2.03221 0.0859274 -0.566913 0.935752 0.0908121 -0.340765 91 43 44
2.03083 0.0873552 -0.56821 0.944955 0.146561 -0.292542 48 38 35
2.03758 0.0851291 -0.560224 0.939467 -0.0953798 -0.329096 243 226 208
2.03989 0.0849564 -0.557705 0.920718 -0.0673022 -0.38438 253 239 218
2.04121 0.0862688 -0.556101 0.936889 -0.0399465 -0.347336 254 246 222
2.04617 0.084182 -0.551689 0.908656 -0.0842629 -0.408954 253 237 219
2.04909 0.0853572 -0.546777 0.981059 -0.0640097 -0.182827 219 200 187
2.04934 0.0840355 -0.544316 0.95701 -0.0868584 -0.276744 139 108 102
2.03794 0.0844026 -0.528093 0.913714 -0.404255 0.0412769 62 39 39
2.03531 0.083508 -0.525356 0.961218 0.193763 -0.196253 61 46 44
2.03906 0.0832356 -0.523075 0.942014 -0.013963 -0.335282 48 37 35
2.0373 0.0848446 -0.522645 0.893577 0.195147 -0.404275 49 37 36
2.04094 0.0829804 -0.520145 0.970175 -0.15258 -0.188362 25 17 16
2.04007 0.0844765 -0.520536 0.956322 0.0486569 -0.288237 38 29 28
2.03835 0.0833825 -0.521932 0.927257 0.0672213 -0.368342 42 31 30
2.04166 0.0842142 -0.518109 0.979706 -0.0745038 -0.18608 23 19 17
2.04266 0.0841216 -0.511078 0.839818 -0.0900318 -0.53535 21 13 11
2.04195 0.0821972 -0.508848 0.822731 -0.0632249 -0.564904 27 16 14
2.04423 0.0836061 -0.5065 0.978943 -0.138637 -0.149832 29 13 14
2.04531 0.0831143 -0.501305 0.86875 -0.148204 -0.472556 231 86 45
2.06436 0.0799596 -0.48863 0.925257 -0.139083 -0.352924 240 91 42
2.07035 0.0800984 -0.484563 0.969927 -0.170388 -0.173807 195 78 52
2.06842 0.0809361 -0.476466 0.961208 -0.125593 0.245573 6 9 61
2.06869 0.0803418 -0.476988 0.968449 -0.136263 0.208659 6 10 65
2.06763 0.0789482 -0.474471 0.993331 -0.104433 -0.04885 8 8 41
1.93182 0.101583 -0.704685 0.864114 -0.357247 -0.354515 253 103 50
1.93289 0.10285 -0.700902 0.983857 -0.178442 -0.0135539 253 98 41
1.93323 0.102505 -0.698369 0.901025 0.415192 -0.125574 250 93 37
1.93595 0.100163 -0.692468 0.849391 0.184096 -0.494615 224 83 39
1.937 0.101253 -0.690441 0.711805 0.0586342 -0.699925 180 67 34
1.93702 0.101324 -0.686303 0.685007 0.172662 -0.707781 86 37 24
2.00407 0.0940302 -0.631029 0.889731 -0.440965 -0.118018 254 250 232
2.00872 0.0932338 -0.628025 0.806622 0.171477 -0.565647 255 245 221
2.01326 0.0934599 -0.619255 0.840788 0.197319 -0.504124 159 145 126
2.01378 0.0908594 -0.612428 0.902376 0.380997 -0.201391 88 76 68
2.01233 0.0927324 -0.608429 0.829041 0.229405 0.509965 92 80 72
2.01504 0.0908002 -0.603589 0.614982 -0.30652 -0.726528 97 84 77
2.03187 0.08882 -0.566755 0.939765 0.0707336 -0.334424 75 62 61
2.03198 0.0898438 -0.568109 0.97479 -0.0226408 -0.221973 63 52 49
2.03292 0.0887315 -0.568255 0.982332 -7.26825e-005 -0.187148 62 50 47
2.03081 0.0902146 -0.568778 0.917961 0.0681395 -0.390776 53 43 40
2.03268 0.0884705 -0.565806 0.961277 0.0262886 -0.274327 104 90 90
2.0403 0.0877907 -0.558246 0.872798 -0.0671702 -0.483438 252 240 219
2.04839 0.0867324 -0.548863 0.961201 -0.0441653 -0.27229 249 232 216
2.04965 0.0867299 -0.544277 0.980769 -0.0611156 -0.185358 134 103 97
2.04997 0.0853961 -0.54199 0.974947 -0.100211 -0.198588 68 30 29
2.04986 0.0853434 -0.54208 0.962533 -0.105185 -0.249932 69 30 29
2.05287 0.0863305 -0.539739 0.893825 -0.187708 -0.407238 56 21 23
2.0471 0.0865097 -0.534132 0.706874 -0.631889 0.317877 52 19 24
2.04248 0.0855059 -0.530577 0.788462 -0.511249 0.341983 52 21 25
2.0394 0.087807 -0.527961 0.964742 -0.261687 0.0281491 63 40 41
2.03674 0.0860277 -0.52498 0.946389 0.234734 0.221916 62 47 46
2.03917 0.0858353 -0.522381 0.945057 0.0758121 -0.317993 49 38 37
2.03993 0.0872114 -0.520527 0.957023 0.0553584 -0.284681 47 39 38
2.03741 0.087321 -0.522153 0.895521 0.205158 -0.394907 59 47 48
2.04119 0.0856403 -0.51966 0.96277 -0.0432258 -0.266844 42 35 34
2.04118 0.0872969 -0.515733 0.973694 0.109249 -0.199963 18 15 14
2.04089 0.0873208 -0.515602 0.974774 0.100701 -0.199187 17 15 13
2.04252 0.0855039 -0.508858 0.76652 -0.188323 -0.613988 22 13 12
2.04414 0.0865721 -0.506539 0.839454 -0.27027 -0.471457 26 13 14
2.0446 0.0847647 -0.504227 0.963835 -0.211548 0.162081 86 36 27
2.0469 0.0848276 -0.498825 0.974542 0.00710594 -0.22409 248 93 42
2.05259 0.0844501 -0.495728 0.686341 -0.0340108 -0.726484 253 107 60
2.06701 0.0817725 -0.486805 0.953996 -0.113005 -0.277709 217 83 34
2.07052 0.0821489 -0.4819 0.984916 -0.171758 0.0209785 80 39 80
2.07037 0.0822853 -0.480404 0.988552 -0.148131 0.0286699 30 19 82
2.06966 0.0835737 -0.476864 0.999174 -0.0399804 -0.00724811 8 8 63
2.0668 0.0830034 -0.472595 0.951738 0.0939383 0.292182 7 7 27
1.93272 0.10466 -0.701132 0.665238 0.348978 -0.660056 252 96 41
1.93452 0.104126 -0.695047 0.889208 0.436161 -0.138104 236 85 34
1.93586 0.104343 -0.690425 0.931042 0.34183 -0.127722 155 53 28
1.9374 0.102794 -0.688776 0.785949 0.149605 -0.599918 121 42 26
2.00797 0.096595 -0.628118 0.850262 0.226139 -0.475305 248 239 214
2.00988 0.0951928 -0.625847 0.768832 0.21342 -0.602784 254 247 227
2.01187 0.0950543 -0.621965 0.868686 0.238669 -0.434076 207 193 178
2.01126 0.0950367 -0.614087 0.938943 0.163257 -0.302876 89 78 70
2.03137 0.0912383 -0.570096 0.964715 0.0597828 -0.256419 53 44 42
2.03239 0.0926233 -0.56704 0.980042 -0.0056386 -0.19871 117 104 104
2.04001 0.0913315 -0.559657 0.858093 0.0124139 -0.513344 252 241 222
2.04194 0.0891738 -0.55655 0.820948 -0.00431684 -0.570987 253 241 219
2.0432 0.0901435 -0.554707 0.653193 -0.720309 -0.233437 254 249 224
2.04972 0.0894336 -0.544425 0.951026 -0.0339189 -0.307245 141 113 105
2.05015 0.0880163 -0.542027 0.980347 -0.0683421 -0.185065 68 33 30
2.05372 0.0891112 -0.540497 0.891204 -0.251474 -0.377514 63 31 30
2.04829 0.0901302 -0.534453 0.669553 -0.726855 0.152906 52 22 23
2.04524 0.089293 -0.53056 0.778812 -0.516683 0.355656 56 28 31
2.03861 0.0886432 -0.521176 0.9455 0.0929825 -0.312065 52 42 41
2.03846 0.0887007 -0.521005 0.930176 0.115554 -0.348452 51 41 41
2.03706 0.0901072 -0.521646 0.937864 0.0735863 -0.33911 64 51 51
2.03676 0.0901619 -0.52144 0.907015 0.114243 -0.405305 64 51 51
2.04049 0.0886233 -0.518159 0.980443 0.0338791 -0.193867 37 32 30
2.04177 0.0885892 -0.514888 0.981386 0.0395982 -0.187919 17 14 13
2.04203 0.0885763 -0.514937 0.982805 0.00230796 -0.18463 17 14 13
2.04225 0.0885338 -0.51557 0.978811 0.0596354 -0.195891 19 16 14
2.04233 0.0874915 -0.511126 0.824069 0.0459796 -0.56462 19 13 12
2.0436 0.088385 -0.508852 0.674073 -0.270363 -0.687408 67 27 18
2.04562 0.0880866 -0.503681 0.921162 -0.38084 0.0801394 114 42 31
2.04531 0.0866048 -0.501484 0.921513 -0.341492 -0.184926 228 93 56
2.04715 0.0878126 -0.498583 0.550327 -0.06111 -0.83271 247 96 45
2.04934 0.0860442 -0.497773 0.704869 0.0935024 -0.703148 251 98 50
2.05071 0.0865717 -0.496126 0.602315 0.188911 -0.775583 251 108 60
2.06583 0.0845823 -0.491175 0.628304 0.77404 -0.0780771 249 111 64
2.05449 0.0862714 -0.493484 0.699092 -0.324624 -0.637095 250 136 100
2.06505 0.0862623 -0.487953 0.647732 0.686 -0.331434 240 102 53
2.07078 0.0851635 -0.481905 0.99829 -0.0568035 0.0137759 112 50 72
2.07019 0.0853742 -0.47998 0.966426 -0.0907079 0.2404 41 21 76
2.06976 0.0838855 -0.477244 0.99765 -0.062255 0.0286011 8 8 68
2.06727 0.0851479 -0.473599 0.934571 0.0423924 0.353241 6 7 33
2.06779 0.0856268 -0.473239 0.916044 0.0599572 0.396571 6 8 25
2.44927 0.0656501 -0.661052 0.974606 -0.00193761 0.223918 3 1 1
2.45084 0.0653896 -0.659059 0.712879 0.364492 -0.599124 8 4 3
2.45089 0.0653838 -0.659065 0.710542 0.421112 -0.563733 8 4 3
1.93295 0.107291 -0.694994 0.889182 0.434917 -0.142134 213 76 34
2.00907 0.098224 -0.625911 0.753397 0.241766 -0.611509 217 204 184
2.01233 0.0970583 -0.619174 0.961629 0.231364 -0.147448 117 106 95
2.03192 0.0939799 -0.569311 0.981442 -0.0505461 -0.184976 81 71 68
2.03946 0.0923862 -0.561364 0.685041 0.119095 -0.718704 237 221 206
2.04152 0.0942155 -0.559823 0.587168 0.0818705 -0.805314 252 244 225
2.04195 0.0925011 -0.556539 0.794023 0.010126 -0.607804 254 245 222
2.04946 0.0908611 -0.542236 0.910076 -0.0788505 0.406871 75 42 36
2.03805 0.091485 -0.520388 0.940172 0.0842664 -0.330116 50 41 39
2.03832 0.0914782 -0.521592 0.957124 0.0134734 -0.289364 61 49 47
2.03681 0.0930272 -0.521608 0.951174 0.0289828 -0.307291 73 60 57
2.0354 0.0917874 -0.521924 0.938365 0.0155874 -0.345293 73 60 58
2.0354 0.0916151 -0.521925 0.924657 0.0498688 -0.377521 73 59 57
2.04036 0.0913116 -0.51806 0.980429 0.0417156 -0.192401 40 33 31
2.04147 0.0924961 -0.517871 0.981161 0.0233599 -0.191773 40 33 31
2.04085 0.0899891 -0.515755 0.97069 0.12276 -0.206618 22 17 15
2.04197 0.0912084 -0.515739 0.975109 0.0953074 -0.200196 25 19 19
2.04444 0.090907 -0.50313 0.543601 -0.00878511 -0.839298 104 37 26
2.04719 0.0911448 -0.499614 0.68521 -0.0173718 -0.728139 248 94 42
2.0448 0.0896364 -0.501509 0.867404 -0.0727488 -0.492258 210 79 40
2.04989 0.0902324 -0.497782 0.786691 -0.217224 -0.577868 252 100 51
2.067 0.0882103 -0.486772 0.92915 0.282016 -0.239054 238 93 46
2.06254 0.0884005 -0.486419 0.636344 0.193857 -0.74665 235 89 41
2.07091 0.0864492 -0.484536 0.973301 0.0799664 -0.215152 217 82 42
2.07082 0.0871684 -0.483096 0.985915 0.0693543 -0.152192 186 74 52
2.07091 0.0881817 -0.481905 0.997578 0.0661334 -0.0215746 149 60 53
2.06954 0.0880189 -0.476388 0.995613 0.0840767 0.0410701 13 7 53
0.58325 0.175972 0.160244 0.348771 -0.812509 -0.467106 72 67 65
2.44834 0.067761 -0.667426 0.715393 0.696773 -0.052153 1 0 0
2.4481 0.0668798 -0.663642 0.977747 -0.0616232 0.200532 1 1 0
2.4491 0.0669657 -0.662576 0.947983 -0.0881082 0.305883 3 1 0
2.44972 0.0665842 -0.659761 0.998315 0.0155074 0.0559115 6 4 2
2.44971 0.0667342 -0.659764 0.95597 -0.0709386 0.284761 6 4 2
2.44979 0.0680077 -0.658103 0.939931 -0.147837 0.307691 8 5 4
2.44983 0.0675646 -0.658189 0.991209 0.0136583 -0.131597 8 5 4
1.92294 0.110578 -0.714208 0.765534 -0.634405 -0.107182 54 20 18
1.92276 0.110667 -0.705763 0.865743 -0.495597 -0.0698069 206 79 37
2.00935 0.100965 -0.623233 0.927775 0.275739 -0.251399 237 225 205
2.00945 0.0997602 -0.620778 0.950952 0.260611 -0.166652 196 185 171
2.01346 0.0996625 -0.601108 0.699602 -0.297133 -0.649823 168 159 147
2.03183 0.0967135 -0.568674 0.976455 -0.136429 -0.167102 115 104 98
2.03954 0.0951863 -0.561305 0.582582 0.126495 -0.802868 237 224 210
2.042 0.0957605 -0.556786 0.780529 0.0842005 -0.619423 254 247 226
2.04989 0.0936649 -0.542015 0.963186 -0.0554582 0.263053 77 44 37
2.03798 0.095537 -0.522653 0.96362 -0.0606617 -0.260302 79 64 60
2.03825 0.094223 -0.521486 0.958383 -0.0408017 -0.282554 70 57 54
2.0402 0.0940082 -0.51793 0.978271 0.0102283 -0.207079 40 32 30
2.04132 0.0925396 -0.51737 0.983107 -0.00753342 -0.182875 39 31 29
2.04491 0.0935049 -0.517284 0.977129 -0.0454231 -0.207738 38 31 29
2.04341 0.0923866 -0.516653 0.978455 -0.0288387 -0.204435 35 27 27
2.04232 0.0924388 -0.513375 0.975685 0.0974132 -0.19634 18 12 12
2.04598 0.0925048 -0.50147 0.845997 -0.0825007 -0.526766 191 78 46
2.04404 0.0939966 -0.503115 0.581239 -0.00250446 -0.813729 78 30 24
2.04403 0.0939565 -0.503143 0.584298 0.00341445 -0.811532 77 30 24
2.05048 0.0931812 -0.497756 0.566773 0.0526787 -0.822188 250 99 46
2.06143 0.0911048 -0.488654 0.566612 0.363417 -0.739513 247 109 62
2.07086 0.0896617 -0.484493 0.98851 0.0959836 -0.116771 227 83 35
2.07085 0.0899211 -0.483092 0.982847 0.118054 -0.141688 208 78 32
2.07047 0.0890643 -0.479981 0.996732 0.0694188 0.0412984 91 37 59
2.07012 0.0897373 -0.479326 0.986981 0.0228662 0.159202 84 35 59
2.0679 0.0896929 -0.473669 0.93377 -0.0583469 0.353084 10 8 24
2.0695 0.0897115 -0.469942 0.455512 -0.624494 -0.634442 10 9 14
2.44598 0.0689081 -0.667798 0.709165 0.670346 -0.218451 3 0 0
2.44667 0.0698587 -0.666665 0.923284 0.35462 -0.147619 1 0 0
2.44903 0.0697201 -0.662304 0.957693 -0.0239059 0.286797 4 2 0
2.45018 0.068538 -0.660175 0.779438 -0.62241 0.071287 8 4 2
1.92674 0.113243 -0.714689 0.480076 -0.863707 0.153419 30 18 21
1.93576 0.113125 -0.711405 0.593531 -0.791067 -0.1481 51 26 22
1.93138 0.111078 -0.685501 0.886571 0.199774 -0.417231 30 15 16
1.92936 0.113252 -0.683335 0.661638 0.191547 -0.724945 21 16 22
1.93193 0.111507 -0.681293 0.775337 0.144631 -0.614764 24 14 15
1.93206 0.111667 -0.681339 0.753577 0.157599 -0.638188 24 14 15
2.00197 0.105241 -0.633357 0.636909 0.339351 -0.692234 220 209 191
2.00823 0.104522 -0.623206 0.837636 0.310491 -0.449401 223 210 191
2.00929 0.10317 -0.620569 0.889809 0.406249 -0.20785 205 194 180
2.0102 0.101849 -0.618036 0.951265 0.252146 -0.177531 155 141 128
2.01273 0.101432 -0.603013 0.743993 -0.161329 -0.64842 173 166 155
2.01515 0.101103 -0.602845 0.988028 -0.0870624 -0.127357 165 158 147
2.04037 0.097179 -0.558994 0.797175 0.128703 -0.589871 253 247 226
2.03906 0.0967116 -0.522062 0.980527 -0.023579 -0.194965 74 60 55
2.03695 0.0970463 -0.523508 0.970092 -0.0437513 -0.23876 73 58 53
2.0396 0.0953618 -0.519889 0.973625 -0.013549 -0.227753 51 40 38
2.04027 0.0966495 -0.518202 0.960644 -0.0601735 -0.271185 42 32 30
2.04129 0.0951942 -0.517427 0.981701 -0.00960059 -0.190187 38 30 29
2.04173 0.0965301 -0.515128 0.980618 -0.0435917 -0.191021 26 19 20
2.04221 0.0951516 -0.513128 0.982428 0.00610582 -0.186543 19 12 14
2.04208 0.0962725 -0.50585 0.824821 -0.00511925 -0.565371 33 25 23
2.04414 0.0958189 -0.501523 0.62023 0.0390174 -0.783449 138 52 30
2.04319 0.0965713 -0.50193 0.639966 0.0532578 -0.766555 81 35 26
2.04414 0.095775 -0.501564 0.616594 0.0384273 -0.786343 138 51 30
2.04809 0.0942351 -0.499577 0.68021 0.0531458 -0.731088 241 95 43
2.05381 0.0948009 -0.495714 0.837324 -0.0591235 -0.543501 252 101 49
2.05347 0.0951188 -0.495895 0.744011 -0.0916044 -0.661858 253 100 48
2.05353 0.0936489 -0.491454 0.5271 -0.112517 -0.842322 252 117 70
2.05903 0.0941209 -0.486995 0.540248 0.262759 -0.799431 244 98 49
2.07077 0.0926998 -0.483088 0.96342 0.246095 -0.106105 223 78 31
2.06925 0.0922728 -0.479995 0.938535 0.344889 -0.0142791 172 68 44
2.06883 0.093312 -0.478511 0.895775 0.43106 0.108512 147 59 41
2.06899 0.0911862 -0.476391 0.956459 0.180394 0.229443 41 15 42
2.06835 0.092963 -0.473772 0.742991 0.663336 0.0891574 30 14 21
2.07407 0.0922772 -0.473018 0.902183 -0.287667 -0.321425 17 13 17
2.07365 0.0908446 -0.470305 0.436222 -0.840019 -0.322611 12 10 16
0.70155 0.179712 0.153765 0.270824 -0.120635 -0.95504 9 9 5
2.44627 0.0717605 -0.666513 0.98022 0.033787 -0.195004 1 0 0
2.44461 0.070968 -0.667285 0.953298 0.275938 -0.122806 3 1 0
2.44942 0.070977 -0.66111 0.940942 -0.0175393 0.338113 4 2 0
1.93057 0.114397 -0.685543 0.655498 0.1665 -0.736614 26 16 16
1.93033 0.116516 -0.684065 0.656394 0.200732 -0.727224 25 14 16
2.00743 0.106907 -0.620529 0.943377 0.283199 -0.17274 224 213 196
2.03916 0.100363 -0.558571 0.955759 0.201027 -0.21474 253 243 218
2.04182 0.099694 -0.556291 0.680289 0.347583 -0.645285 253 246 224
2.04041 0.10094 -0.5541 0.826218 -0.352689 -0.439287 253 252 226
2.04557 0.0997686 -0.553238 0.812539 0.353414 -0.463549 253 245 222
2.04206 0.101081 -0.551922 0.527833 -0.38971 -0.754664 253 244 222
2.04598 0.101201 -0.551497 0.948992 0.231459 -0.214104 254 243 221
2.0507 0.098419 -0.540738 0.986868 0.140727 -0.0792899 74 41 33
2.04622 0.0983069 -0.527659 0.832475 -0.299595 0.466078 78 58 53
2.03739 0.0996206 -0.524575 0.975562 -0.0509771 -0.21373 66 48 43
2.03696 0.100977 -0.52683 0.656312 0.753486 -0.0389013 62 39 34
2.039 0.0994196 -0.52215 0.962131 -0.0643164 -0.264891 71 55 51
2.03911 0.0993776 -0.522018 0.969495 -0.0435728 -0.241209 71 54 50
2.03963 0.0980342 -0.519873 0.956085 -0.035375 -0.290948 58 45 41
2.04051 0.0993269 -0.518395 0.953716 -0.0417408 -0.297798 42 32 30
2.04122 0.0978994 -0.516604 0.953496 -0.0687217 -0.293466 33 25 24
2.04184 0.099204 -0.515092 0.979661 -0.0703051 -0.18794 22 16 16
2.0423 0.0991295 -0.515196 0.979178 -0.0794576 -0.186809 23 16 17
2.04248 0.0977833 -0.513561 0.980806 -0.0655418 -0.183639 18 12 14
2.04234 0.0977999 -0.513264 0.980124 -0.0546546 -0.190709 18 12 14
2.04309 0.0976603 -0.508029 0.583239 -0.059912 -0.810088 31 24 23
2.04361 0.0993803 -0.505805 0.683118 0.730307 -0.000970405 31 26 22
2.04206 0.0980561 -0.50367 0.822666 0.0154684 -0.568315 40 24 22
2.04202 0.0972196 -0.503179 0.743778 0.064031 -0.665352 48 24 21
2.04484 0.0982553 -0.499953 0.709063 0.0152934 -0.70498 156 66 39
2.04517 0.0975232 -0.499646 0.699081 0.022958 -0.714674 183 79 47
2.04826 0.0964083 -0.497799 0.639109 0.156959 -0.75293 244 96 46
2.04806 0.0986196 -0.496028 0.702602 0.0781615 -0.707277 245 96 47
2.0543 0.0977142 -0.494071 0.549338 0.30786 -0.77682 254 98 46
2.0581 0.0964815 -0.493661 0.512337 -0.264118 -0.817161 254 99 48
2.05792 0.0970832 -0.492219 0.500966 -0.259813 -0.825548 253 99 48
2.06481 0.0945224 -0.485762 0.578131 0.384727 -0.719548 236 90 41
2.05908 0.095018 -0.487934 0.69156 0.338473 -0.638108 244 100 50
2.06692 0.0943303 -0.483666 0.855448 0.413223 -0.312178 229 84 34
2.0651 0.0962385 -0.481166 0.76386 0.51278 -0.391886 211 73 29
0.592266 0.191638 0.152112 0.276723 -0.21794 -0.93591 12 11 7
0.702628 0.181429 0.15376 0.275078 -0.129946 -0.952599 9 8 5
0.70527 0.180752 0.149518 0.334426 -0.142699 -0.931556 8 9 5
0.702504 0.181926 0.157398 0.267461 -0.147648 -0.95219 9 7 5
2.4448 0.0728943 -0.667242 0.939988 -0.0405393 -0.33879 4 1 0
2.4402 0.0732748 -0.668199 0.716886 0.511775 -0.473456 26 14 7
2.0065 0.109487 -0.620663 0.963749 0.264445 -0.0354663 238 227 209
2.00773 0.108352 -0.618046 0.961629 0.22296 -0.15987 166 151 138
2.01307 0.106451 -0.566619 0.878937 0.417056 -0.231372 34 27 25
2.04374 0.103598 -0.551769 0.976062 0.108245 -0.188641 229 218 201
2.04943 0.10233 -0.541962 0.963882 0.16631 -0.208019 84 47 40
2.03852 0.100797 -0.524535 0.981118 -0.0634829 -0.182693 67 48 43
2.03854 0.10076 -0.524076 0.980601 -0.0648753 -0.184965 69 50 46
2.03952 0.100813 -0.519274 0.930287 -0.0433857 -0.364258 52 40 37
2.0392 0.10089 -0.518803 0.781265 -0.119634 -0.612628 49 37 35
2.04052 0.102081 -0.518095 0.728208 -0.13726 -0.67147 36 27 25
2.04154 0.100588 -0.516913 0.964695 -0.0685215 -0.254301 29 22 21
2.04201 0.101877 -0.515029 0.978296 -0.0864556 -0.188314 19 14 15
2.0425 0.1018 -0.515129 0.977512 -0.100073 -0.185621 19 14 15
2.04299 0.100335 -0.514652 0.972374 -0.142497 -0.184889 19 13 15
2.04239 0.100501 -0.512876 0.982389 -0.0429143 -0.181851 18 13 15
2.04286 0.100422 -0.512967 0.980793 -0.0655523 -0.183707 17 13 15
2.04283 0.100416 -0.512964 0.980076 -0.0787822 -0.182333 18 13 15
2.04384 0.101677 -0.51066 0.642689 0.763396 -0.0646337 25 21 20
2.04232 0.100199 -0.501747 0.681485 0.148822 -0.71654 45 25 20
2.04432 0.101616 -0.49998 0.654799 -0.0483166 -0.754257 81 32 22
2.04605 0.0997928 -0.497852 0.740263 -0.0699002 -0.668674 213 104 71
2.05006 0.101079 -0.495767 0.548195 0.265564 -0.793069 231 97 55
2.05098 0.10075 -0.494119 0.550562 0.290422 -0.782647 244 92 44
2.0555 0.100181 -0.492317 0.549215 0.310816 -0.775729 251 93 43
2.05635 0.0990893 -0.490506 0.553501 0.389148 -0.736342 249 98 45
2.0609 0.0976106 -0.485801 0.614308 0.472563 -0.63191 236 89 38
2.06544 0.0972106 -0.483658 0.583492 0.353635 -0.731081 227 81 33
2.06093 0.0985472 -0.483038 0.663064 0.464618 -0.586921 224 80 31
2.06418 0.0976929 -0.477585 0.794168 0.499982 -0.345421 167 60 27
0.575473 0.201748 0.144879 0.280375 -0.224689 -0.933223 9 9 6
0.609186 0.196854 0.148728 0.298735 -0.184279 -0.936375 10 10 6
0.611683 0.196146 0.144343 0.279694 -0.152025 -0.947977 10 10 6
0.647178 0.192957 0.144934 0.27687 -0.144208 -0.950025 14 10 7
0.657787 0.190947 0.152781 0.465928 0.00456909 -0.884811 12 11 7
0.703613 0.186912 0.15114 0.270433 -0.123721 -0.954756 7 7 5
2.43235 0.0757188 -0.674877 0.582659 -0.700012 -0.412907 17 8 2
2.43338 0.0767671 -0.672996 0.882226 -0.128661 -0.452906 12 4 0
2.43816 0.0750615 -0.670116 0.710105 0.491715 -0.503952 20 10 3
2.44253 0.0742494 -0.667573 0.874374 0.305281 -0.377192 9 3 2
2.00207 0.111922 -0.627853 0.740136 0.448268 -0.501253 91 80 68
2.00332 0.112515 -0.626436 0.888647 0.243819 -0.388406 88 77 66
2.0058 0.11115 -0.618171 0.954477 0.292327 0.0593141 188 174 160
2.03738 0.105519 -0.559348 0.712663 0.282895 -0.641936 239 228 209
2.04707 0.105273 -0.548947 0.815781 0.505735 -0.280597 197 186 167
2.03836 0.103512 -0.523085 0.941959 -0.190936 -0.276145 63 43 39
2.03907 0.103987 -0.520409 0.776729 -0.0949225 -0.622641 60 44 42
2.04224 0.104539 -0.515022 0.979404 -0.0777072 -0.186355 27 23 22
2.04274 0.104467 -0.515051 0.976977 -0.100495 -0.188195 27 22 22
2.0433 0.102973 -0.514854 0.971189 -0.150675 -0.184632 22 18 18
2.04359 0.102945 -0.514359 0.977715 -0.102039 -0.183469 23 19 20
2.04419 0.102448 -0.505785 0.648769 -0.142444 -0.747535 31 23 21
2.04308 0.102966 -0.505247 0.602423 -0.11771 -0.78945 31 23 21
2.04284 0.103281 -0.501737 0.667614 -0.118483 -0.735019 33 24 23
2.04585 0.103076 -0.498226 0.663423 -0.109538 -0.740183 103 47 34
2.046 0.103115 -0.497863 0.619767 -0.0467014 -0.783395 114 54 39
2.0571 0.101795 -0.48842 0.554532 0.389888 -0.735175 241 89 37
2.05643 0.102214 -0.489687 0.555705 0.394548 -0.731795 243 90 39
2.0545 0.101918 -0.490601 0.560909 0.358996 -0.745991 245 92 40
2.05933 0.100614 -0.485785 0.559308 0.493359 -0.666162 232 85 34
2.05824 0.101927 -0.485893 0.573345 0.501716 -0.647732 231 83 34
2.05863 0.101906 -0.483042 0.623082 0.516716 -0.587174 215 76 28
2.05949 0.101483 -0.480351 0.679878 0.420855 -0.60054 193 69 24
2.06159 0.100943 -0.477597 0.746966 0.389635 -0.538727 150 50 20
0.592009 0.201356 0.147126 0.277718 -0.216924 -0.935851 9 9 6
0.610667 0.202601 0.145471 0.279018 -0.154904 -0.94771 8 9 6
2.43265 0.0780686 -0.674839 0.585711 -0.67225 -0.452794 9 3 0
2.43447 0.0778024 -0.671176 0.69924 0.598135 -0.391533 10 4 0
2.00023 0.114902 -0.627945 0.813923 0.461072 -0.35347 93 83 74
2.0038 0.114323 -0.622656 0.862512 0.500359 -0.0755905 116 103 92
2.00502 0.115539 -0.620872 0.991169 0.12587 0.0417206 103 89 78
2.04019 0.107314 -0.520373 0.946454 -0.114838 -0.301724 53 39 36
2.0427 0.105835 -0.517262 0.716243 -0.613702 0.332214 26 20 17
2.04409 0.105538 -0.515002 0.976561 -0.10304 -0.188976 30 25 24
2.00203 0.109029 -0.505572 0.917396 0.365432 -0.157622 42 24 22
2.04113 0.10518 -0.50353 0.58906 -0.267751 -0.762442 29 22 23
2.04363 0.106304 -0.50244 0.47181 -0.577727 -0.666053 30 22 23
2.04413 0.104763 -0.499993 0.525858 -0.151043 -0.837054 56 20 19
2.05233 0.105868 -0.493891 0.491028 -0.352811 -0.796502 112 45 36
2.05135 0.103487 -0.494072 0.547987 0.268232 -0.792314 189 77 41
2.04501 0.106547 -0.49429 0.566409 0.497425 -0.657076 82 34 32
2.04755 0.104445 -0.494805 0.557342 0.381247 -0.737578 131 57 39
2.0546 0.104554 -0.490936 0.580357 0.337191 -0.741275 199 81 46
2.05352 0.104774 -0.492871 0.556328 0.340499 -0.757997 158 68 49
2.05505 0.104997 -0.490089 0.878333 -0.436614 -0.194678 185 75 40
2.05617 0.104903 -0.483706 0.55739 0.437465 -0.705649 178 70 35
2.0588 0.104619 -0.479927 0.664979 0.445792 -0.599227 114 36 13
2.05982 0.104122 -0.477599 0.662651 0.342871 -0.665832 86 25 12
1.97763 0.119294 -0.609425 0.800122 -0.587675 -0.120181 67 61 50
2.03858 0.109002 -0.519579 0.904867 0.0317705 -0.424507 52 37 34
2.04454 0.109403 -0.520053 0.712088 -0.0379378 -0.701064 48 19 18
1.99973 0.11225 -0.507737 0.710803 0.0616328 -0.700686 42 21 17
2.00084 0.112872 -0.504885 0.999368 0.03552 -0.00139436 41 22 19
1.99971 0.111452 -0.502271 0.994324 -0.105339 -0.0149196 57 39 37
1.99877 0.112821 -0.498784 0.993258 -0.114575 -0.0176541 111 97 93
2.05473 0.106549 -0.492165 0.595707 -0.239324 -0.766719 91 46 35
2.05461 0.107193 -0.492338 0.539596 -0.12602 -0.832439 75 42 33
2.05714 0.107561 -0.48983 0.807583 -0.585457 -0.0710606 70 35 23
2.05635 0.105059 -0.483036 0.594544 0.382528 -0.707241 162 64 31
2.06288 0.10647 -0.476062 0.744015 0.150915 -0.650897 47 17 16
1.97941 0.121966 -0.6091 0.838893 -0.52997 -0.124063 86 75 64
2.00032 0.11469 -0.501949 0.964036 0.037902 0.263055 84 69 64
2.05414 0.110331 -0.485259 0.555608 0.249337 -0.793177 41 30 25
2.0565 0.10794 -0.479874 0.584228 0.470724 -0.661133 57 21 17
2.05585 0.107903 -0.479554 0.738786 0.582052 -0.339723 39 24 19
2.05877 0.107297 -0.477591 0.602264 0.288194 -0.744461 51 19 16
1.97338 0.124199 -0.616731 0.576609 -0.270875 -0.770811 193 182 168
1.98052 0.12434 -0.605151 0.896987 -0.256156 -0.360275 208 200 185
1.99925 0.116334 -0.499283 0.997045 0.0768142 0.000968017 118 105 101
1.99773 0.117568 -0.495669 0.942637 0.00952762 0.333683 77 66 61
2.05182 0.11102 -0.487818 0.54726 0.286188 -0.786513 54 25 21
2.05459 0.111043 -0.477415 0.542874 0.315044 -0.778482 44 17 16
2.0571 0.110375 -0.477593 0.703187 0.38253 -0.599332 44 17 17
2.05908 0.10986 -0.47564 0.589586 0.273062 -0.760149 42 17 16
2.05737 0.110729 -0.475593 0.558509 0.289413 -0.777372 41 17 17
2.04342 0.117046 -0.5472 0.953791 0.213411 -0.211513 137 126 114
1.9986 0.120006 -0.499287 0.922027 0.130514 0.364462 111 98 92
1.99738 0.121418 -0.495307 0.959131 0.188018 0.211463 73 60 57
1.99582 0.119708 -0.492283 0.981155 0.0890803 0.171464 46 35 33
1.99441 0.121516 -0.489243 0.58483 -0.793241 0.169537 38 27 25
1.99824 0.123101 -0.498979 0.99852 -0.0515656 -0.017284 71 56 51
1.99606 0.123217 -0.49227 0.918032 0.269279 0.291042 40 29 27
1.99814 0.125583 -0.502175 0.995364 0.0959996 -0.00593475 32 15 11
2.00469 0.123319 -0.46345 0.735321 -0.318935 -0.597982 34 34 31
2.00615 0.124449 -0.461234 0.909306 -0.37828 -0.173396 43 43 39
2.00634 0.122861 -0.458932 0.908701 -0.385629 -0.159854 32 31 27
1.55319 0.192636 -0.87069 0.586984 -0.188388 0.787375 3 2 0
1.9867 0.134006 -0.599325 0.892307 -0.0452935 -0.449151 64 56 50
1.99464 0.127457 -0.492274 0.913293 0.398341 0.0849725 31 20 17
2.00671 0.127353 -0.465975 0.946172 0.146906 -0.288406 18 16 15
2.00562 0.126379 -0.463647 0.602935 -0.306443 -0.736588 31 30 27
2.00761 0.125579 -0.459016 0.940477 -0.301011 -0.157782 31 30 27
2.00797 0.125614 -0.458742 0.910888 -0.31511 -0.266436 28 27 24
1.55156 0.194197 -0.867956 0.952804 -0.135265 0.271788 2 1 0
1.99608 0.131227 -0.498751 0.931492 0.356041 0.0745467 24 13 6
1.99634 0.131256 -0.49894 0.937791 0.340065 0.0700313 24 13 6
2.06663 0.123709 -0.479337 0.472517 -0.834325 -0.283954 11 9 8
2.00727 0.128869 -0.463647 0.945526 0.14926 -0.289314 30 28 25
2.00318 0.130169 -0.464572 0.454349 -0.450167 -0.768711 16 14 13
2.0076 0.127298 -0.461393 0.811877 -0.337819 -0.476166 45 44 41
2.00868 0.128525 -0.459057 0.956978 -0.229785 -0.177178 32 30 26
2.00884 0.128381 -0.45888 0.956285 -0.224756 -0.187094 30 28 24
1.98118 0.140413 -0.597199 0.992824 -0.0553461 -0.106006 84 75 69
1.98203 0.1388 -0.596317 0.993483 -0.0428837 -0.105601 67 59 53
1.98138 0.139175 -0.589885 0.593436 -0.0279371 -0.804397 58 51 44
1.99702 0.132557 -0.496985 0.96695 0.251597 0.0413174 21 13 7
2.00853 0.130068 -0.461429 0.939781 -0.296518 -0.169965 46 44 41
2.00925 0.131347 -0.458862 0.985086 -0.145346 -0.0920824 37 33 30
2.00974 0.129661 -0.456436 0.946801 -0.0132456 -0.321547 16 14 12
2.01617 0.136625 -0.529197 0.952854 0.0290053 -0.302041 254 248 234
2.0716 0.126519 -0.487437 0.462049 -0.839395 -0.286227 6 6 2
2.07127 0.126546 -0.48561 0.437707 -0.691873 -0.574216 7 5 2
2.00805 0.133668 -0.462511 0.496009 -0.191707 -0.846891 37 31 29
2.00902 0.133498 -0.461523 0.754908 -0.0760967 -0.651401 53 48 46
2.01138 0.132591 -0.45831 0.783927 0.430124 -0.447718 30 25 22
1.98331 0.145508 -0.600228 0.9939 0.0359166 -0.104273 96 87 73
2.01734 0.13783 -0.528506 0.968676 0.0369261 -0.245565 254 247 235
2.01741 0.139325 -0.525343 0.983738 0.0319031 -0.176755 214 198 183
2.01893 0.138719 -0.522558 0.898975 0.0455868 -0.435621 64 47 36
2.02001 0.137258 -0.520525 0.930563 0.0272033 -0.365119 39 22 14
2.08352 0.128014 -0.477267 0.469802 -0.735651 -0.487958 7 4 1
2.00663 0.136188 -0.466533 0.756063 -0.421723 -0.500519 4 2 2
2.00759 0.136451 -0.463932 0.484292 -0.170762 -0.85808 5 2 2
2.0078 0.13598 -0.459274 0.715902 0.611729 -0.336559 29 24 23
2.00941 0.135607 -0.458312 0.744543 0.588544 -0.315075 26 21 20
2.01043 0.134852 -0.455091 0.703425 0.501546 -0.503633 7 3 2
2.01934 0.140367 -0.520229 0.984358 0.0419217 -0.171118 40 24 16
2.00864 0.13914 -0.46325 0.982416 -0.0876235 -0.164868 3 2 1
2.00907 0.137797 -0.455099 0.766118 0.576372 -0.284358 3 1 1
2.00947 0.137017 -0.451941 0.520012 0.175511 -0.835933 2 1 0
2.01966 0.141637 -0.522513 0.998248 0.0365452 -0.0465363 62 45 35
2.01918 0.143173 -0.520003 0.975956 0.0370131 -0.214804 39 24 15
2.0194 0.143121 -0.52022 0.979226 0.0412315 -0.198536 39 24 16
2.00644 0.142412 -0.461662 0.860619 0.41131 0.300265 1 1 1
2.01036 0.140355 -0.461548 0.444627 -0.483993 -0.753696 2 2 2
2.00818 0.141144 -0.457338 0.532718 0.280302 -0.798525 1 2 2
2.01789 0.144768 -0.525211 0.9695 0.0746933 -0.233433 213 202 181
2.01948 0.144576 -0.522517 0.997392 0.0365642 -0.0622252 62 48 34
2.01894 0.149031 -0.525138 0.997386 0.0521876 -0.0499812 208 200 178
2.01922 0.147505 -0.522525 0.999217 0.0389499 -0.00698023 65 52 36
1.97291 0.161316 -0.615371 0.634632 0.262542 -0.726852 224 206 188
2.01688 0.150196 -0.527772 0.972004 0.0998984 -0.212668 254 249 221
2.01727 0.151637 -0.525447 0.971731 0.109868 -0.20897 236 228 204
2.01727 0.151633 -0.52546 0.972764 0.103552 -0.207382 237 228 204
2.01868 0.150544 -0.522613 0.997831 0.0604897 0.0259471 79 65 51
2.02133 0.150283 -0.519226 0.572957 0.0772969 -0.815932 37 23 12
1.97108 0.16412 -0.615449 0.954395 0.253486 -0.157716 212 195 178
1.9727 0.162807 -0.612965 0.993971 0.0313121 -0.105074 150 132 116
2.01688 0.154447 -0.525264 0.972182 0.117205 -0.202794 236 226 201
2.01811 0.153038 -0.522856 0.929728 0.0460271 0.365359 104 90 74
1.9956 0.155041 -0.503003 0.875909 0.252915 0.410873 34 21 12
1.9938 0.156699 -0.500721 0.985862 -0.0997221 0.134653 31 20 12
1.70017 0.22164 -1.06951 0.450815 -0.823895 0.343456 2 1 0
2.01605 0.155851 -0.527171 0.965301 0.132894 -0.224794 252 243 214
2.01416 0.157618 -0.526577 0.865263 0.196718 -0.46111 249 240 210
2.01639 0.157336 -0.524752 0.964844 0.133449 -0.226423 227 216 191
2.01758 0.155847 -0.522866 0.940126 0.0773864 0.331926 121 106 91
2.01759 0.157458 -0.520191 0.963869 0.143205 -0.224609 61 42 31
1.99592 0.159534 -0.505614 0.881048 0.125254 0.456142 92 75 66
1.99587 0.158071 -0.49807 0.936691 0.276398 -0.214974 28 17 10
1.70579 0.227406 -1.06873 0.369263 -0.925444 0.0848436 14 8 5
2.01677 0.158811 -0.522413 0.964685 0.139963 -0.223143 118 103 88
2.01875 0.158624 -0.519992 0.96313 0.137767 -0.231084 78 54 46
1.99456 0.159774 -0.500368 0.998328 0.0460191 -0.034981 40 27 19
1.99472 0.161296 -0.497703 0.981567 -0.00506853 -0.191051 30 17 10
1.99588 0.161141 -0.497671 0.834707 0.0366377 -0.549474 30 17 10
1.99474 0.160972 -0.497705 0.988115 -0.0767365 -0.133192 30 17 10
1.99564 0.15979 -0.495562 0.930456 0.243928 -0.273404 28 15 9
1.99711 0.161072 -0.496116 0.654461 0.304417 -0.692107 28 16 9
1.99648 0.159695 -0.495301 0.762704 -0.108038 -0.637661 28 15 9
1.70374 0.228972 -1.07672 0.618761 -0.765132 0.178069 16 8 3
1.45577 0.249835 -0.783975 0.970181 -0.196546 0.141843 22 12 4
1.45894 0.251101 -0.783789 0.981311 -0.16729 0.0950918 20 12 4
1.97365 0.171435 -0.610201 0.838197 0.066356 -0.541316 31 19 14
1.99754 0.16744 -0.576992 0.763749 0.280179 -0.581539 164 149 134
1.99411 0.166927 -0.546305 0.770975 0.21116 -0.60084 136 125 116
1.99468 0.164589 -0.503064 0.999966 0.00358212 -0.00744116 175 149 144
1.99585 0.164227 -0.497675 0.810031 -0.0121456 -0.586261 30 17 9
1.99645 0.162652 -0.495321 0.72627 0.0133642 -0.68728 28 15 9
1.39228 0.243695 -0.439333 0.969851 0.194548 0.146765 6 5 0
1.3915 0.243651 -0.43938 0.971826 0.179998 0.152169 6 5 0
1.39317 0.243696 -0.440472 0.980789 0.0137225 0.194588 7 5 0
1.39169 0.242401 -0.426176 0.942612 0.32138 0.0905359 5 3 1
1.7055 0.232335 -1.07692 0.798433 -0.541995 0.262196 15 7 3
1.70201 0.233536 -1.07138 0.807506 -0.588734 0.0364124 12 7 3
1.70318 0.232944 -1.06523 0.71705 -0.681651 -0.145574 13 7 3
1.45936 0.253014 -0.780771 0.981989 0.0794248 -0.171434 12 7 3
1.46167 0.254612 -0.779205 0.97713 -0.0791154 -0.197379 12 6 4
1.46035 0.251002 -0.777578 0.984265 0.0938211 0.149734 14 7 3
1.99171 0.167703 -0.549148 0.983858 0.0765405 -0.161759 67 57 52
1.99763 0.167067 -0.512007 0.866638 0.329617 0.374554 164 152 137
1.99733 0.165937 -0.495299 0.884618 0.148823 0.441931 27 16 8
1.39361 0.247839 -0.44031 0.961738 -0.199799 0.18746 9 7 2
1.39355 0.247845 -0.440278 0.961359 -0.199734 0.189463 9 7 2
1.39232 0.247878 -0.440161 0.933867 0.186102 -0.305381 9 7 2
1.38611 0.2465 -0.433637 0.96185 0.240592 0.130232 9 6 2
1.38534 0.248789 -0.42938 0.872241 0.45881 -0.169381 12 8 3
1.38742 0.246805 -0.42519 0.669674 0.30767 -0.675926 10 6 2
1.70666 0.237368 -1.08032 0.5492 -0.799571 0.243036 10 8 4
1.7085 0.234961 -1.05868 0.553028 -0.80216 0.225163 12 7 3
1.70848 0.235145 -1.05753 0.54681 -0.811117 0.207574 12 6 3
1.70839 0.234875 -1.05935 0.537834 -0.81614 0.211308 12 7 3
1.67973 0.232384 -0.874799 0.57701 -0.811605 0.0914191 12 7 3
1.45973 0.256852 -0.781461 0.991596 -0.042825 0.12208 10 6 4
1.99883 0.171201 -0.559715 0.802389 -0.334795 0.494049 31 27 24
1.99343 0.171401 -0.549356 0.800693 0.275488 -0.531975 58 48 41
1.99156 0.172953 -0.550483 0.857236 0.325066 -0.399347 83 71 62
1.99587 0.169884 -0.506417 0.881949 0.144775 0.44856 102 82 72
1.99116 0.169486 -0.493341 0.942681 0.326671 0.0681064 33 22 13
1.39704 0.251481 -0.441338 0.937728 0.033438 -0.345757 12 8 2
1.39718 0.25145 -0.441383 0.938693 0.0666571 -0.33825 12 8 2
1.39364 0.249964 -0.436876 0.933164 0.0691955 -0.352729 11 7 2
1.39411 0.249892 -0.437063 0.93579 0.154874 -0.31672 11 7 2
1.38613 0.251051 -0.433736 0.962631 0.237293 0.13051 14 9 2
1.3849 0.25108 -0.433607 0.962139 0.239394 0.130305 14 9 2
1.35247 0.250698 -0.331554 0.895651 0.444665 0.0090871 4 3 0
1.35215 0.248498 -0.314227 0.878198 -0.180336 -0.442997 4 3 1
2.06359 0.139398 -0.092797 0.901466 -0.136391 -0.410801 13 5 2
1.71221 0.238109 -1.05775 0.859945 -0.306106 0.408404 16 10 4
1.71984 0.235089 -1.01833 0.74601 0.601456 -0.285866 13 8 3
1.72554 0.234834 -1.00882 0.865682 0.50021 -0.019621 17 9 3
1.72702 0.232737 -1.00454 0.388669 -0.696148 0.603584 17 9 1
1.68289 0.237849 -0.93162 0.402101 -0.914886 -0.036027 21 14 5
1.68324 0.237407 -0.917962 0.681025 0.721043 -0.127679 23 16 5
1.68407 0.235113 -0.907724 0.91406 -0.281344 0.292132 21 11 5
1.65457 0.235158 -0.797987 0.808534 -0.576852 0.116253 2 2 0
