ply
format ascii 1.0
element vertex 734
property float x
property float y
property float z
property float nx
property float ny
property float nz
property uchar diffuse_red
property uchar diffuse_green
property uchar diffuse_blue
end_header
2.0622 -0.101019 -1.3426 -0.302118 -0.0208643 -0.953042 19 12 5
2.06363 -0.10135 -1.34153 0.54182 0.0373199 -0.839666 16 8 2
2.0644 -0.100502 -1.34142 0.550143 0.0652571 -0.832516 16 9 2
1.34366 -0.151194 -0.856161 0.319356 0.877811 -0.357014 11 11 5
1.39017 -0.210551 -0.451778 0.847294 -0.0248797 -0.530542 23 17 7
1.53023 -0.132501 -1.01283 0.382903 -0.0990821 -0.91846 81 73 60
1.63696 -0.171917 -0.761267 0.741458 -0.192854 -0.642687 74 67 50
1.66396 -0.178579 -0.731832 0.764345 -0.396702 -0.508335 84 74 59
1.66774 -0.175224 -0.738842 -0.228255 -0.578853 -0.782834 136 127 113
1.66987 -0.177696 -0.734695 -0.0453534 -0.50635 -0.861135 111 105 92
1.67392 -0.175815 -0.736351 0.420723 -0.233208 -0.876702 129 124 110
1.67826 -0.1779 -0.732306 0.0273571 -0.305657 -0.951749 58 53 37
1.67885 -0.176248 -0.734121 0.52826 0.0746238 -0.845797 47 42 28
1.6818 -0.178176 -0.730279 -0.102742 -0.243342 -0.964484 44 38 23
1.74405 -0.179528 -0.738623 0.798987 -0.239838 -0.551451 53 45 32
1.74292 -0.17734 -0.741015 0.77219 -0.3234 -0.546933 54 46 33
1.74863 -0.184433 -0.69372 0.632888 -0.083624 -0.769714 36 30 19
1.82654 -0.174334 -0.786465 0.785055 0.162399 -0.597758 6 3 2
1.83006 -0.173205 -0.78304 0.804224 0.190294 -0.563039 5 4 2
1.83327 -0.17508 -0.779459 0.681665 0.312901 -0.661382 50 51 51
1.83521 -0.176044 -0.777991 0.739923 0.274275 -0.614236 67 71 70
1.83834 -0.174872 -0.773677 0.722962 0.243555 -0.646534 67 67 65
1.83864 -0.175346 -0.77379 0.737295 0.266842 -0.620638 64 63 62
1.84255 -0.177623 -0.769299 0.801715 0.197065 -0.564286 29 23 19
1.84053 -0.17644 -0.771635 0.769077 0.212807 -0.602689 38 35 31
1.84238 -0.177735 -0.769563 0.799093 0.210286 -0.563232 30 24 19
1.84073 -0.176341 -0.771632 0.734767 0.256119 -0.628109 38 35 30
1.84384 -0.175831 -0.7674 0.801391 0.121962 -0.585574 66 59 52
1.84558 -0.176985 -0.766434 0.803639 0.0770179 -0.590113 58 50 44
2.54034 -0.443414 0.939489 0.00391439 0.900352 -0.435145 96 86 66
2.13598 -0.208747 -0.595966 -0.574328 0.00268671 -0.818621 51 46 35
2.05515 -0.14492 -1.02151 0.25797 0.157011 -0.95331 91 77 57
2.06282 -0.145412 -1.0182 -0.641914 0.429789 -0.635003 87 77 58
2.0649 -0.14521 -1.01887 -0.0259413 0.831284 -0.555243 88 79 60
2.11527 -0.130019 -1.13803 0.487679 0.55032 -0.677729 96 84 60
2.05698 -0.0997033 -1.3409 0.0169475 0.470058 -0.882473 84 76 52
2.0592 -0.0992819 -1.34301 0.333143 -0.0473117 -0.941688 81 72 51
2.06451 -0.0990915 -1.34112 0.55195 0.032915 -0.833227 17 9 2
1.33317 -0.148092 -0.853242 0.761126 -0.0537868 -0.64637 18 16 7
1.43421 -0.204977 -0.4847 0.921713 -0.182524 -0.342242 68 60 42
1.67034 -0.173742 -0.737812 0.301065 -0.747467 -0.59216 132 125 111
1.67015 -0.174252 -0.73677 0.204992 -0.757367 -0.619978 133 126 113
1.67673 -0.17428 -0.737627 0.697407 -0.000245979 -0.716675 94 89 76
1.6778 -0.173374 -0.737306 0.465324 -0.196189 -0.863124 49 44 32
1.6801 -0.174925 -0.732952 0.609472 0.114324 -0.784521 25 20 8
1.68147 -0.174478 -0.731997 -0.0263389 -0.591925 -0.805563 26 19 10
1.68314 -0.17565 -0.730894 -0.168906 0.320603 -0.932032 36 30 18
1.74181 -0.174685 -0.742643 0.746046 -0.265187 -0.610812 54 47 33
1.7451 -0.175853 -0.740225 0.786781 -0.293905 -0.542767 51 43 31
1.74919 -0.181294 -0.693706 0.615143 0.104041 -0.781521 34 27 16
1.75199 -0.18425 -0.673528 0.673752 -0.0307834 -0.738316 27 23 13
1.83496 -0.213073 -0.495406 0.42649 0.0527112 -0.902955 27 22 13
1.83771 -0.213123 -0.493686 0.583355 0.108024 -0.805001 39 29 18
1.82795 -0.172061 -0.783899 0.804006 0.191699 -0.562872 5 4 2
1.8312 -0.171397 -0.77964 0.700025 0.27176 -0.660388 42 41 37
1.83425 -0.173136 -0.777713 0.721863 0.26988 -0.637243 49 51 51
1.83623 -0.174026 -0.775818 0.726102 0.278463 -0.628677 62 65 65
1.83737 -0.171983 -0.773719 0.707941 0.247892 -0.661339 63 66 67
1.83977 -0.173398 -0.771622 0.753579 0.202723 -0.625317 62 61 60
1.83948 -0.172894 -0.771615 0.715466 0.212585 -0.665519 59 60 59
1.84213 -0.174549 -0.769504 0.709528 0.221278 -0.669033 34 29 25
1.84515 -0.173959 -0.765011 0.815362 0.134582 -0.563091 8 6 3
1.84674 -0.174818 -0.766103 0.767987 0.20677 -0.60617 31 27 20
2.01125 -0.155621 -0.921369 -0.5696 -0.118135 -0.813388 41 36 24
2.55445 -0.435741 0.944341 0.133461 0.83614 -0.532031 97 88 66
2.05586 -0.143399 -1.01975 0.392855 0.233011 -0.88959 100 83 61
2.05651 -0.143053 -1.02108 0.508203 -0.206946 -0.836005 94 79 58
2.05652 -0.143012 -1.01948 0.635017 0.19071 -0.748588 94 79 59
2.06769 -0.144274 -1.01722 0.0902627 0.899933 -0.426584 90 80 62
2.15488 -0.161059 -0.908336 -0.0489873 -0.748126 -0.661746 50 44 31
2.16183 -0.16304 -0.905713 -0.648482 0.254954 -0.717265 56 50 36
2.11222 -0.127481 -1.13782 -0.564785 0.131321 -0.814722 94 83 60
2.11467 -0.128997 -1.1389 0.481582 0.562666 -0.671927 65 57 40
2.11782 -0.1294 -1.13645 0.328385 0.584384 -0.742064 94 84 60
2.118 -0.127778 -1.13729 0.182487 0.00689965 -0.983184 93 83 59
2.11896 -0.127473 -1.13899 -0.117338 0.0503338 -0.991816 93 83 59
2.06484 -0.0977678 -1.34036 0.554129 0.0229514 -0.832114 18 10 3
2.06641 -0.0984446 -1.33961 -0.0168509 0.899981 -0.435604 15 7 2
1.33204 -0.14573 -0.855833 0.720218 -0.228673 -0.654977 19 16 8
1.6371 -0.165725 -0.763161 0.643494 -0.207253 -0.73686 66 59 43
1.63947 -0.168114 -0.760233 0.492827 -0.217589 -0.842482 172 166 149
1.67538 -0.170825 -0.74027 0.827449 -0.116093 -0.549409 54 47 37
1.74467 -0.172964 -0.74276 0.767894 -0.335968 -0.545403 52 45 33
1.74395 -0.173149 -0.743095 0.776961 -0.314339 -0.545456 53 46 33
1.83603 -0.210267 -0.494262 0.465376 0.0315692 -0.88455 46 37 24
1.83243 -0.169407 -0.778335 0.772288 0.169812 -0.612156 34 31 28
1.83346 -0.170544 -0.776717 0.609476 0.339877 -0.716256 33 33 32
1.83344 -0.170515 -0.776743 0.614305 0.33905 -0.712513 33 33 31
1.8333 -0.170676 -0.776774 0.601185 0.35234 -0.71724 33 33 32
1.83652 -0.169441 -0.773698 0.701932 0.229176 -0.674367 44 47 49
1.83536 -0.171279 -0.775738 0.728751 0.229884 -0.64504 42 43 45
1.83854 -0.170298 -0.771907 0.724337 0.193831 -0.661639 64 67 69
1.84341 -0.172258 -0.76785 0.678211 0.218893 -0.701509 30 25 21
1.84318 -0.172514 -0.768452 0.627568 0.259775 -0.733945 37 31 28
1.84628 -0.171798 -0.764456 0.674552 0.272146 -0.686233 5 3 1
2.08939 -0.261617 -0.17576 0.293019 -0.209174 -0.932945 36 30 21
1.96001 -0.136826 -1.03081 0.352353 -0.147371 -0.924191 60 47 36
2.54677 -0.433236 0.945614 0.174826 0.287858 -0.94158 96 87 65
2.05367 -0.141299 -1.02311 0.336757 -0.189766 -0.922271 81 66 51
2.0556 -0.141313 -1.02222 0.395344 -0.129 -0.90943 90 75 56
2.06471 -0.143274 -1.01669 -0.170638 0.835812 -0.521824 85 75 54
2.10931 -0.126672 -1.13789 0.402126 0.65167 -0.643134 92 84 58
2.11203 -0.126711 -1.13696 -0.0684253 0.615457 -0.785195 94 84 60
2.11372 -0.127273 -1.13861 -0.381527 0.0140662 -0.924251 93 82 59
2.11598 -0.126249 -1.13749 0.207189 0.0033877 -0.978295 91 82 58
2.11584 -0.127378 -1.13867 0.384671 0.109787 -0.916502 93 82 58
2.11654 -0.126044 -1.1378 -0.147834 0.246876 -0.957704 91 82 58
2.11884 -0.126145 -1.13744 0.160286 -0.0626147 -0.985083 87 78 57
2.06727 -0.0970818 -1.3393 -0.0271829 0.910156 -0.413373 15 9 3
1.33154 -0.145086 -0.852796 0.736063 -0.292904 -0.610261 19 16 8
1.6406 -0.165102 -0.760183 0.562496 -0.215699 -0.798168 216 209 194
1.69815 -0.16311 -0.778092 0.310039 -0.0953463 -0.945931 49 43 32
1.74498 -0.176816 -0.700095 0.845933 -0.132874 -0.516471 62 54 38
1.74672 -0.170056 -0.742305 0.765126 -0.340217 -0.546658 36 31 21
1.83059 -0.168488 -0.778728 0.776016 0.16655 -0.608326 45 35 30
1.83434 -0.168647 -0.776112 0.774042 0.198308 -0.601276 34 31 29
1.83369 -0.167612 -0.776562 0.816915 0.112303 -0.565719 34 26 22
1.8345 -0.168486 -0.776324 0.773129 0.192936 -0.604191 34 31 29
1.83449 -0.168603 -0.775529 0.708546 0.222352 -0.669718 34 32 30
1.83229 -0.166164 -0.778266 0.720644 0.0319292 -0.69257 31 15 11
1.83542 -0.166706 -0.774765 0.795562 0.18621 -0.576547 32 25 23
1.8377 -0.167591 -0.77187 0.698209 0.216927 -0.682236 47 49 51
1.8403 -0.168932 -0.76962 0.691198 0.221453 -0.687898 63 65 65
1.83976 -0.168489 -0.769975 0.714201 0.212969 -0.666754 64 67 69
1.84241 -0.169635 -0.767865 0.658638 0.251192 -0.709294 39 35 34
1.84455 -0.170827 -0.764565 0.807192 0.16051 -0.568048 5 3 2
1.84568 -0.168764 -0.763165 0.75758 0.231805 -0.610196 4 4 2
1.84574 -0.1688 -0.763075 0.758628 0.226965 -0.610713 4 4 2
1.84757 -0.169468 -0.763254 0.575862 0.374377 -0.726791 4 3 1
1.84758 -0.169449 -0.763644 0.579497 0.357942 -0.732162 4 3 1
1.94745 -0.134701 -1.0344 0.44751 -0.478353 -0.755588 47 38 29
2.01072 -0.152992 -0.921682 -0.598632 -0.154897 -0.785905 41 36 25
2.56262 -0.437161 1.01513 -0.154997 0.90791 -0.389455 98 89 69
2.05413 -0.139551 -1.02274 0.479629 0.0403549 -0.876543 91 74 59
2.05695 -0.13939 -1.02207 0.281434 0.0328898 -0.959017 100 83 66
2.10949 -0.125693 -1.13727 0.460749 0.595097 -0.65846 93 84 58
2.11216 -0.125763 -1.13583 -0.128527 0.778095 -0.614857 93 84 60
2.1139 -0.125554 -1.13672 -0.182172 0.626945 -0.757465 92 82 59
2.11558 -0.124328 -1.13694 -0.03756 0.335047 -0.941452 92 83 58
2.11778 -0.124395 -1.13712 -0.309678 -0.57289 -0.758878 87 78 55
2.12014 -0.124304 -1.13692 0.355716 0.419526 -0.835143 89 80 57
2.06544 -0.0961414 -1.33623 0.270326 0.558563 -0.784175 18 10 3
1.40049 -0.191207 -0.507476 0.954668 -0.048154 -0.293751 29 24 15
1.60326 -0.146925 -0.858818 0.0955382 0.905527 -0.413393 40 33 21
1.63766 -0.161413 -0.761886 -0.00134242 -0.139234 -0.990259 73 59 46
1.68338 -0.16195 -0.77928 0.26687 -0.342796 -0.900706 43 37 31
1.74366 -0.167208 -0.747501 0.776448 -0.322899 -0.54117 67 58 42
1.74589 -0.166191 -0.74495 0.776523 -0.320555 -0.542454 49 41 28
1.75052 -0.177295 -0.6759 0.573103 0.00322211 -0.819477 28 24 14
1.7505 -0.176068 -0.674551 0.577115 0.0100192 -0.816602 22 18 10
1.83269 -0.164898 -0.776728 0.714495 0.0127982 -0.699524 31 12 9
1.83367 -0.165727 -0.775789 0.772671 0.184041 -0.607543 30 15 12
1.83653 -0.164843 -0.772787 0.773974 0.207076 -0.598401 30 20 20
1.83563 -0.166642 -0.774324 0.779979 0.194915 -0.594677 32 26 25
1.84012 -0.165466 -0.769544 0.714513 0.242698 -0.656178 59 60 63
1.8387 -0.165653 -0.769871 0.676639 0.286573 -0.67826 49 51 53
1.84156 -0.166888 -0.767522 0.707837 0.272874 -0.651542 43 46 49
1.84158 -0.166723 -0.76732 0.709229 0.236974 -0.663955 43 46 49
1.84362 -0.167713 -0.765465 0.749313 0.217744 -0.625394 18 18 18
1.84641 -0.166735 -0.76118 0.808526 0.250886 -0.532298 5 4 2
2.03482 -0.257489 -0.145614 0.399624 0.173332 -0.900143 60 52 39
2.03246 -0.257842 -0.14545 0.397265 0.15003 -0.905357 64 55 42
2.08221 -0.252787 -0.16928 0.362255 0.0309172 -0.931566 40 33 23
2.56317 -0.432705 1.02824 -0.191616 0.907466 -0.373885 96 89 68
2.1105 -0.123536 -1.13697 -0.0629918 -0.045152 -0.996992 93 84 59
2.11326 -0.123682 -1.13547 0.210412 0.0855723 -0.97386 94 85 60
2.11697 -0.122997 -1.13728 -0.165297 0.0732915 -0.983517 91 83 57
2.11921 -0.122589 -1.13772 0.432245 0.342574 -0.83415 88 79 56
2.12075 -0.122804 -1.13594 0.415437 0.302042 -0.858011 93 85 59
1.38579 -0.131836 -0.91775 0.372035 -0.352198 -0.858805 16 13 7
1.37333 -0.148926 -0.78719 0.968383 -0.0966784 -0.229972 19 12 4
1.4037 -0.188039 -0.510263 0.946268 -0.109444 -0.304301 33 29 18
1.40249 -0.186091 -0.51219 0.920051 -0.12621 -0.370915 13 11 5
1.40633 -0.185628 -0.512027 0.930805 -0.140457 -0.337451 40 35 22
1.60308 -0.145087 -0.855922 0.0520071 0.89407 -0.444897 41 34 22
1.63701 -0.159079 -0.765463 0.590895 -0.146545 -0.793327 62 51 38
1.64031 -0.159487 -0.763433 -0.0862053 0.0262513 -0.995931 132 112 100
1.68207 -0.159114 -0.781753 0.20818 -0.289017 -0.934415 100 91 84
1.68445 -0.158457 -0.779933 0.288908 -0.476997 -0.830064 177 170 165
1.70059 -0.160086 -0.776683 0.224045 0.00323789 -0.974573 39 34 25
1.74758 -0.164371 -0.744817 0.842853 -0.144836 -0.518287 38 30 17
1.7481 -0.170183 -0.693881 0.826578 -0.197958 -0.526861 31 25 14
1.75113 -0.174713 -0.673134 0.753926 0.00874229 -0.656902 21 18 10
1.83466 -0.163849 -0.774487 0.789022 0.1582 -0.593647 37 12 10
1.8348 -0.161645 -0.776011 0.726461 0.116566 -0.67725 37 12 8
1.83705 -0.164007 -0.772307 0.75151 0.247139 -0.611682 34 23 23
1.83513 -0.162696 -0.77427 0.767151 0.300409 -0.566775 36 12 9
1.83529 -0.163062 -0.774306 0.757565 0.104606 -0.644324 37 12 10
1.84279 -0.164792 -0.765413 0.719 0.285762 -0.633545 42 46 47
1.84474 -0.165631 -0.763373 0.774372 0.240564 -0.585216 16 17 17
1.84587 -0.163789 -0.760889 0.819346 0.18435 -0.542851 12 13 13
1.8709 -0.174879 -0.698248 0.633667 0.139499 -0.760925 6 5 1
2.02942 -0.25403 -0.144558 0.396477 0.063367 -0.915855 45 41 29
2.03209 -0.254022 -0.145334 0.393155 0.0603624 -0.917489 64 56 41
2.0359 -0.25399 -0.143743 0.374075 0.39865 -0.837344 13 9 3
2.07551 -0.249194 -0.171506 -0.11469 0.21721 -0.969364 36 30 21
2.11372 -0.121173 -1.1361 0.173049 -0.52898 -0.830803 93 84 60
2.11798 -0.12119 -1.13696 0.015472 -0.114992 -0.993246 92 83 57
2.11965 -0.121195 -1.13607 -0.159515 -0.0412716 -0.986332 92 83 57
2.12254 -0.12226 -1.13514 0.318236 0.735086 -0.598643 95 85 61
1.37178 -0.129007 -0.924994 0.371166 -0.321062 -0.871295 13 11 6
1.37325 -0.129164 -0.923295 0.369695 -0.319333 -0.872555 13 11 5
1.38378 -0.129372 -0.917218 0.362038 -0.302125 -0.881844 16 13 7
1.4016 -0.184505 -0.513114 0.916113 -0.0112489 -0.400761 32 28 17
1.40089 -0.185248 -0.512105 0.911492 -0.117666 -0.394129 13 11 5
1.40485 -0.183834 -0.512762 0.928381 -0.129 -0.348523 35 31 20
1.40372 -0.182009 -0.514786 0.953607 0.00988477 -0.300893 14 12 5
1.4029 -0.182783 -0.513499 0.909924 -0.0561571 -0.410956 33 29 18
1.6838 -0.155848 -0.78174 0.505647 -0.350944 -0.788137 136 128 121
1.69589 -0.156617 -0.779346 0.536934 -0.343771 -0.770404 105 99 93
1.70056 -0.157738 -0.775757 0.215582 0.0599253 -0.974645 33 27 24
1.74264 -0.162522 -0.748873 0.41631 -0.0855606 -0.905188 61 54 43
1.74475 -0.16104 -0.748129 0.61219 -0.0316888 -0.790076 49 42 31
1.74617 -0.162679 -0.746679 0.837131 -0.0674369 -0.542829 42 34 26
1.83673 -0.160913 -0.772454 0.768601 0.0954529 -0.632567 37 12 10
1.84225 -0.161559 -0.765376 0.811333 0.190917 -0.552529 44 49 50
1.84417 -0.162797 -0.763001 0.749658 0.266383 -0.605849 35 40 41
1.87036 -0.171421 -0.698191 0.680886 0.170055 -0.712373 6 5 1
2.02923 -0.25036 -0.142374 0.242728 0.542428 -0.804273 65 57 42
2.04824 -0.133834 -1.01702 0.0914991 -0.380543 -0.920225 86 77 53
2.05152 -0.133596 -1.0181 0.309131 -0.115086 -0.94403 99 80 61
2.1169 -0.119244 -1.13737 -0.00226599 0.146786 -0.989166 92 84 58
2.11879 -0.119576 -1.13566 -0.11349 0.428335 -0.896465 93 85 59
2.1188 -0.119475 -1.13621 0.100598 0.33135 -0.93813 93 85 59
1.36588 -0.12619 -0.927746 0.78109 0.0624125 -0.621291 23 16 7
1.37109 -0.126394 -0.924683 0.672311 -0.217389 -0.70763 14 12 6
1.37297 -0.126515 -0.923059 0.540046 -0.157486 -0.82677 14 12 6
1.37387 -0.126423 -0.923204 0.558685 -0.0860129 -0.824908 14 11 6
1.40578 -0.179694 -0.515557 0.952428 -0.0648893 -0.297775 36 32 20
1.4073 -0.18153 -0.513792 0.943805 -0.113489 -0.310408 43 38 25
1.40976 -0.179122 -0.51568 0.940764 -0.116616 -0.318378 63 56 40
1.6856 -0.153272 -0.781211 -0.401323 -0.366468 -0.839429 95 87 76
1.74161 -0.159644 -0.749173 0.384667 -0.241977 -0.890774 58 52 41
1.74651 -0.160272 -0.746221 0.13098 -0.103311 -0.985987 37 30 22
1.74784 -0.15892 -0.744068 0.838034 0.00865214 -0.545549 35 27 16
1.74941 -0.160285 -0.745788 0.147368 0.0198461 -0.988883 33 25 15
1.7494 -0.160275 -0.743627 0.858689 -0.0646993 -0.508397 32 24 14
1.76952 -0.166002 -0.706021 -0.202585 0.832455 -0.515731 73 66 47
1.84209 -0.159788 -0.763219 0.768345 0.32492 -0.551429 61 63 68
1.84375 -0.159585 -0.762914 0.823 0.110735 -0.557143 44 51 54
1.86788 -0.168432 -0.70116 0.770235 0.141117 -0.621952 6 6 2
2.14473 -0.188115 -0.605105 0.0474283 -0.00907513 -0.998833 39 35 25
2.05153 -0.131939 -1.01741 0.394015 0.0187428 -0.918913 94 78 60
2.05096 -0.131686 -1.01859 0.283303 0.155801 -0.946291 91 71 54
2.04997 -0.131502 -1.01944 0.254307 0.183347 -0.949585 88 67 51
2.06182 -0.131501 -1.01671 0.408605 -0.0181663 -0.912531 114 95 76
1.36814 -0.122948 -0.930017 0.460075 -0.256358 -0.850066 49 37 19
1.37072 -0.124999 -0.924318 0.446283 0.312268 -0.838642 30 21 9
1.41078 -0.126571 -0.906883 0.346996 -0.273466 -0.897112 11 7 4
1.4121 -0.12674 -0.90527 0.336424 -0.217709 -0.9162 10 7 3
1.40635 -0.175838 -0.517854 0.955759 -0.0183766 -0.293578 17 15 7
1.41211 -0.176796 -0.516997 0.907866 -0.0333746 -0.417929 54 46 31
1.41026 -0.178568 -0.515617 0.944042 -0.0992382 -0.314541 52 45 31
1.41247 -0.176647 -0.516852 0.919109 -0.0192569 -0.393533 54 46 31
1.41259 -0.176214 -0.517074 0.910469 -0.0202157 -0.413083 54 46 31
1.41482 -0.17753 -0.514841 0.913422 -0.101071 -0.394264 44 37 24
1.68024 -0.151338 -0.78136 0.24104 0.562898 -0.790598 183 177 164
1.68381 -0.15111 -0.782329 -0.181619 0.352002 -0.91821 126 117 105
1.7457 -0.157578 -0.746976 0.604149 0.0787599 -0.79297 55 47 37
1.74353 -0.156388 -0.748527 0.616717 0.14262 -0.774157 58 52 41
1.7475 -0.155915 -0.745091 0.557465 0.0669062 -0.8275 28 20 13
1.74743 -0.155579 -0.745308 0.505806 0.0967476 -0.857205 30 22 15
1.74973 -0.157213 -0.742832 0.774852 0.117057 -0.62121 31 24 14
1.76284 -0.163145 -0.703317 0.843823 0.135626 -0.5192 66 59 42
1.76589 -0.163312 -0.703803 0.45619 0.741634 -0.491803 75 68 47
1.76953 -0.163571 -0.700735 -0.222121 0.820899 -0.526105 67 60 42
1.86716 -0.165294 -0.699536 0.656925 0.164977 -0.735685 7 6 1
1.86901 -0.166157 -0.700021 0.790025 0.202747 -0.57858 7 6 2
2.05042 -0.232291 -0.201631 0.392517 0.786605 -0.476637 45 40 29
1.95129 -0.121495 -1.06074 0.303807 0.32729 -0.894753 30 28 22
2.14612 -0.185585 -0.60511 0.0498954 0.0781293 -0.995694 37 32 21
2.14757 -0.185347 -0.606077 0.154429 0.137061 -0.978451 38 32 21
2.05215 -0.128711 -1.01874 0.291047 -0.0139274 -0.956607 88 70 53
2.05115 -0.128529 -1.01961 0.287728 -0.0131093 -0.957622 87 64 51
2.05316 -0.128892 -1.01787 0.294345 -0.0146843 -0.955586 94 79 60
1.40865 -0.173356 -0.517073 0.919987 -0.0549148 -0.388083 45 38 26
1.41051 -0.175044 -0.516759 0.922553 -0.0377928 -0.384014 51 45 31
1.41573 -0.173395 -0.516033 0.90356 -0.0467512 -0.425903 43 37 24
1.68231 -0.14857 -0.782551 0.207155 -0.457005 -0.865005 137 125 113
1.74532 -0.154723 -0.746656 0.677025 0.190674 -0.710831 58 50 40
1.74532 -0.15428 -0.746593 0.597685 0.150755 -0.78743 58 50 40
1.74925 -0.153754 -0.74416 0.553852 0.00895931 -0.832567 18 10 5
1.74939 -0.154215 -0.743818 0.630082 0.0222979 -0.776209 37 28 17
1.76204 -0.159359 -0.704052 0.822092 0.185617 -0.538248 42 34 24
1.76408 -0.160759 -0.701322 0.539088 0.345169 -0.768273 74 66 50
1.76412 -0.160982 -0.702078 0.808621 0.360998 -0.464555 74 66 49
1.86961 -0.164067 -0.697563 0.761365 0.220394 -0.609713 25 24 17
1.86813 -0.162745 -0.699929 0.768968 0.2316 -0.595861 23 22 16
1.95279 -0.120482 -1.05936 0.70079 -0.0616676 -0.710697 75 64 50
2.14594 -0.183331 -0.603993 0.0945844 0.169407 -0.980997 39 36 24
2.14649 -0.182944 -0.605681 0.0494724 0.0789756 -0.995648 37 31 21
2.14824 -0.182761 -0.606407 0.113736 0.0593434 -0.991737 40 36 24
2.05318 -0.126885 -1.01846 0.293272 -0.047313 -0.954858 85 69 52
2.05217 -0.126707 -1.01933 0.292205 -0.038173 -0.955594 80 63 47
2.05421 -0.127059 -1.0176 0.27934 0.00952581 -0.960145 93 78 59
2.14868 -0.113377 -1.1511 -0.640777 -0.35006 -0.683273 92 84 60
1.40833 -0.169741 -0.516166 0.957856 0.028423 -0.285839 45 38 25
1.4071 -0.171123 -0.51987 0.582647 -0.267513 -0.767437 18 16 7
1.74487 -0.150499 -0.74679 0.858099 -0.0639299 -0.509488 56 51 41
1.74725 -0.152318 -0.745605 0.420502 -0.00348011 -0.907285 35 27 21
1.75198 -0.156518 -0.709876 0.203555 0.80668 -0.554828 25 20 13
1.75561 -0.15593 -0.713615 0.372367 0.816154 -0.441854 53 47 26
1.75993 -0.15599 -0.704905 0.808088 0.366071 -0.461504 66 53 25
1.8512 -0.152971 -0.756724 0.605923 -0.131956 -0.784503 23 16 16
1.86688 -0.15981 -0.700195 0.698686 0.406033 -0.589046 6 6 1
2.14213 -0.178454 -0.606713 -0.783531 -0.00748777 -0.621308 38 33 24
2.0494 -0.125203 -1.0194 -0.649794 0.438002 -0.621226 87 78 55
2.05724 -0.12688 -1.01727 0.278792 0.00647146 -0.96033 96 82 62
2.14652 -0.111837 -1.14972 -0.3616 -0.3635 -0.858553 90 81 61
1.40212 -0.120547 -0.913696 0.69713 0.251234 -0.671484 45 36 21
1.40526 -0.168315 -0.514426 0.95815 0.049017 -0.28204 15 14 5
1.40534 -0.168842 -0.514206 0.958112 0.0588715 -0.280279 15 14 6
1.41282 -0.168817 -0.511669 0.515964 0.79949 -0.307566 43 36 23
1.74856 -0.149903 -0.744393 0.533637 -0.0948003 -0.840384 18 12 5
1.75268 -0.153161 -0.710455 0.22887 0.847469 -0.478973 17 12 8
1.7559 -0.153829 -0.710298 0.812034 0.358111 -0.460822 55 46 23
1.75856 -0.152726 -0.705026 0.813961 0.343 -0.468848 145 127 75
1.75792 -0.154906 -0.707731 0.797702 0.392903 -0.457492 136 118 72
1.76301 -0.153779 -0.702156 -0.245281 0.791472 -0.55983 78 64 33
1.76634 -0.153601 -0.701012 0.376438 0.772653 -0.511177 51 38 22
1.76885 -0.154096 -0.698137 0.535859 0.364121 -0.761755 29 23 12
1.77552 -0.156514 -0.690659 0.702168 -0.430213 -0.567342 30 20 12
1.77328 -0.15705 -0.694522 0.507704 0.508151 -0.695715 14 10 5
1.77919 -0.154949 -0.691728 0.303565 0.10925 -0.946527 58 40 28
1.78284 -0.158851 -0.677135 -0.465586 -0.367762 -0.804973 18 14 9
1.85018 -0.15106 -0.756261 0.585265 0.244175 -0.773203 65 62 66
2.05926 -0.124881 -1.01722 0.278846 0.00312165 -0.960331 102 86 69
2.22185 -0.156233 -0.787449 -0.252541 0.0507046 -0.966257 57 52 38
2.22272 -0.156047 -0.788657 -0.255933 0.00429391 -0.966685 57 53 38
2.14682 -0.109757 -1.15077 -0.220272 -0.599686 -0.769323 92 82 61
2.14773 -0.10949 -1.15308 -0.159291 0.203769 -0.965973 91 82 62
2.14958 -0.108705 -1.15653 0.303412 -0.107356 -0.946792 89 80 60
1.38813 -0.116783 -0.92152 0.378327 -0.310581 -0.872014 68 49 28
1.39185 -0.11615 -0.921923 0.901274 -0.0296928 -0.432231 69 49 28
1.40574 -0.165692 -0.510203 0.936078 0.228892 -0.267144 22 19 10
1.75649 -0.151677 -0.707502 0.818141 0.34043 -0.463414 39 30 11
1.75448 -0.150604 -0.710137 0.817552 0.34351 -0.462179 13 9 3
1.76962 -0.151178 -0.700598 0.77554 0.430888 -0.461382 52 39 17
1.77271 -0.153785 -0.689257 0.643427 0.626742 -0.43954 42 28 15
1.78068 -0.152475 -0.690468 0.104448 0.0578709 -0.992845 83 40 28
1.78346 -0.152698 -0.688658 0.484094 -0.315782 -0.816048 61 22 16
1.78448 -0.155099 -0.684033 0.20461 -0.662566 -0.720515 21 13 8
1.78448 -0.155099 -0.684033 0.20461 -0.662566 -0.720515 21 13 8
1.8537 -0.147548 -0.751399 0.172108 0.666425 -0.725436 18 18 18
1.85318 -0.149473 -0.752142 0.679044 0.348487 -0.646108 43 38 34
1.95433 -0.114133 -1.05981 0.642502 -0.236432 -0.728897 62 48 36
2.49061 -0.367287 0.952583 -0.404367 0.833915 -0.375596 94 88 66
2.49051 -0.367416 0.952365 -0.405189 0.833519 -0.375589 94 88 66
2.49263 -0.365271 0.952531 -0.401952 0.834942 -0.375908 96 89 66
2.05263 -0.122203 -1.01905 0.0583904 0.38032 -0.92301 86 79 58
2.05548 -0.121808 -1.02067 0.498239 0.36718 -0.785454 84 67 49
2.05532 -0.121529 -1.02076 0.52496 0.322727 -0.787569 85 67 50
2.05946 -0.1228 -1.01658 0.264679 0.0751807 -0.961402 102 87 69
2.14923 -0.107481 -1.15629 0.204827 -0.075629 -0.975872 90 80 59
1.40564 -0.161962 -0.510289 0.680953 0.416179 -0.602576 23 19 10
1.75411 -0.148777 -0.705208 0.836953 0.151388 -0.525919 9 7 2
1.75722 -0.149508 -0.704947 0.813687 0.327688 -0.48014 24 15 3
1.77605 -0.152069 -0.688343 -0.102429 0.627974 -0.771464 98 53 38
1.78209 -0.14995 -0.690114 0.276451 -0.0971885 -0.956101 126 43 34
1.78434 -0.150245 -0.687276 0.124894 -0.317658 -0.939944 119 36 32
1.7849 -0.150688 -0.686388 0.75989 -0.208259 -0.615789 104 31 26
1.78828 -0.150265 -0.688153 -0.146447 -0.253923 -0.956073 55 24 16
1.79131 -0.150313 -0.68779 -0.0431863 -0.247278 -0.967982 23 15 8
1.85309 -0.145227 -0.747642 -0.0799176 0.619686 -0.780771 33 36 35
1.85621 -0.14714 -0.749817 0.444279 0.606295 -0.659562 9 7 5
2.47608 -0.362435 0.971009 -0.751845 0.045381 -0.657776 13 10 3
2.48636 -0.362051 0.958012 -0.749742 0.121655 -0.650452 87 83 63
2.48626 -0.362177 0.95778 -0.749755 0.12197 -0.650377 87 83 63
2.4919 -0.358576 0.951763 -0.452852 0.793161 -0.407211 95 89 66
2.03598 -0.120081 -1.01285 0.138765 0.101608 -0.985099 83 73 52
2.03813 -0.120132 -1.0129 -0.18244 -0.234927 -0.954738 83 73 52
2.04008 -0.120273 -1.01227 -0.053793 -0.363859 -0.929899 86 79 58
2.05011 -0.119157 -1.02049 -0.140786 -0.422228 -0.89549 88 81 60
2.05363 -0.119696 -1.01877 0.0533649 -0.0413591 -0.997718 87 80 59
2.05591 -0.119957 -1.01876 -0.146867 0.345296 -0.926931 88 80 60
2.05585 -0.119795 -1.01878 -0.269015 0.392979 -0.879317 89 80 60
2.05484 -0.120081 -1.01896 0.334204 0.757146 -0.561282 87 69 52
2.14973 -0.105348 -1.15638 0.265132 0.0377915 -0.963471 90 78 58
2.15375 -0.105086 -1.1569 -0.0865351 0.00222729 -0.996246 42 32 21
1.40657 -0.159382 -0.505944 0.77135 0.282485 -0.570282 34 28 18
1.71116 -0.134417 -0.802901 0.557624 0.212156 -0.802525 50 52 104
1.70981 -0.133474 -0.803623 0.689232 0.143945 -0.710098 41 43 73
1.75348 -0.145521 -0.703582 0.68305 0.142035 -0.716427 10 8 3
1.75135 -0.144738 -0.702712 0.109851 -0.371096 -0.922074 8 7 3
1.75537 -0.146768 -0.702665 0.552277 0.167657 -0.816628 13 10 4
1.75845 -0.145523 -0.701356 0.373499 0.14795 -0.915756 28 19 10
1.76202 -0.14765 -0.702012 -0.130139 0.854316 -0.503198 118 98 53
1.76217 -0.145996 -0.698841 0.0700013 0.851822 -0.519132 70 52 20
1.7656 -0.147952 -0.696844 0.411761 0.627951 -0.660401 169 145 94
1.7741 -0.149141 -0.688287 0.264396 -0.115324 -0.957494 91 41 25
1.77765 -0.149116 -0.688913 -0.117347 -0.174125 -0.977707 137 62 41
1.78386 -0.147343 -0.690392 0.234835 -0.0952577 -0.967356 159 56 43
1.78365 -0.147298 -0.690346 0.260194 -0.0745393 -0.962675 160 58 44
1.78683 -0.14737 -0.689612 0.173823 -0.231028 -0.957294 137 34 31
1.79024 -0.147407 -0.689365 -0.0076611 -0.117435 -0.993051 53 20 13
1.79361 -0.147358 -0.689795 -0.140364 -0.167023 -0.975911 13 10 5
1.79921 -0.146807 -0.697059 -0.544194 -0.250548 -0.800674 12 9 6
1.82701 -0.1626 -0.570793 0.675516 -0.402192 -0.617996 77 69 62
1.8358 -0.156781 -0.628917 0.686685 0.443808 -0.575759 15 7 4
1.83586 -0.157285 -0.625492 -0.00258923 -0.117658 -0.993051 33 24 19
1.84579 -0.142754 -0.755794 0.78024 0.343383 -0.522794 10 10 8
1.84632 -0.142694 -0.760672 0.416085 -0.0381759 -0.908524 11 11 8
1.84753 -0.143501 -0.754332 0.704811 0.235965 -0.669001 24 27 27
1.85146 -0.143252 -0.746592 0.0652259 0.562551 -0.824185 49 56 55
1.85383 -0.142879 -0.745308 0.512967 0.58139 -0.631546 66 66 56
1.85614 -0.144824 -0.747395 0.335267 0.778562 -0.530506 13 10 7
2.4702 -0.357726 0.977401 -0.436162 0.814515 -0.382528 8 6 2
2.48095 -0.357507 0.966022 -0.812714 -0.0424051 -0.581117 46 43 29
2.48102 -0.357346 0.965807 -0.811625 -0.0432138 -0.582578 47 44 30
2.49032 -0.356191 0.959144 -0.461815 0.473372 -0.750098 92 87 65
2.49203 -0.358511 0.952496 -0.464544 0.780277 -0.418768 95 89 65
2.03443 -0.118049 -1.01444 -0.41906 -0.000564033 -0.907958 82 74 53
2.03964 -0.1171 -1.01215 -0.102232 -0.631152 -0.768893 88 81 60
2.04157 -0.118147 -1.01216 -0.0940444 0.563107 -0.821016 88 81 61
2.05231 -0.11851 -1.01805 0.238786 0.603297 -0.76093 87 71 53
2.05489 -0.118046 -1.01798 0.365765 0.254434 -0.895254 92 74 57
2.13253 -0.103142 -1.16094 0.0739515 0.874376 -0.479581 96 88 63
2.13844 -0.103486 -1.15853 0.36416 0.639188 -0.677367 98 88 63
2.138 -0.103177 -1.15873 0.380042 0.515282 -0.768149 98 88 63
2.155 -0.104935 -1.15823 -0.0767478 -0.234713 -0.96903 21 13 3
2.15704 -0.103291 -1.15856 0.557061 0.11521 -0.822441 13 8 1
1.64231 -0.132474 -0.774532 0.0552369 -0.768283 -0.637722 135 123 107
1.69201 -0.128402 -0.813137 0.338545 -0.585622 -0.736502 135 82 79
1.70809 -0.131114 -0.803589 0.366554 -0.193016 -0.910155 43 45 77
1.7107 -0.131136 -0.802314 0.425613 0.00442369 -0.904895 44 43 56
1.75034 -0.141808 -0.705207 0.474797 -0.148814 -0.867423 13 10 8
1.75695 -0.142993 -0.701721 0.252382 -0.567702 -0.783593 25 19 11
1.76202 -0.145326 -0.698018 0.283528 0.799278 -0.529874 62 45 17
1.76374 -0.144045 -0.691216 0.857193 -0.0399907 -0.51344 93 73 40
1.76561 -0.145352 -0.692703 0.0874735 0.715186 -0.693439 168 141 92
1.77274 -0.146537 -0.689345 0.108532 -0.255171 -0.960785 151 108 79
1.77484 -0.144365 -0.690293 -0.467328 -0.386403 -0.795171 156 100 56
1.77902 -0.144571 -0.691422 -0.468353 -0.361414 -0.806242 137 60 29
1.79781 -0.144973 -0.693875 -0.50903 -0.303303 -0.805541 17 11 4
1.80034 -0.145318 -0.698889 -0.57446 -0.127832 -0.808489 14 11 4
1.8263 -0.159303 -0.576305 0.732719 0.099139 -0.673271 20 13 11
1.82849 -0.155046 -0.624104 0.579093 0.461612 -0.671986 7 6 1
1.83566 -0.16277 -0.56199 0.281752 0.161404 -0.945814 32 25 14
1.83426 -0.154596 -0.62503 0.407861 0.802057 -0.436295 15 8 5
1.8446 -0.140184 -0.755059 0.777859 0.269357 -0.567787 9 7 2
1.84672 -0.140768 -0.753445 0.679185 0.316808 -0.662073 18 17 15
1.84938 -0.139282 -0.750544 0.625983 0.324571 -0.709084 38 40 40
1.84875 -0.141319 -0.752423 0.675601 0.263131 -0.688713 43 45 45
1.85209 -0.139954 -0.744756 0.570998 0.373807 -0.73091 78 83 79
1.85136 -0.140717 -0.745054 0.0744803 0.600227 -0.796355 47 55 56
1.85076 -0.13987 -0.748384 0.790973 0.0486224 -0.609916 51 56 59
1.85424 -0.140501 -0.743414 0.73164 0.435142 -0.524743 82 85 72
1.89097 -0.165461 -0.526097 0.768465 -0.215131 -0.602645 54 46 29
1.89395 -0.166206 -0.527374 0.599291 0.178093 -0.78047 35 28 17
2.47294 -0.354244 0.981177 -0.61996 0.665763 -0.415222 9 7 3
2.48496 -0.352285 0.960386 -0.800711 0.0315311 -0.59822 77 74 55
2.48493 -0.351527 0.959282 -0.810715 0.0696783 -0.58128 78 74 55
2.49002 -0.347315 0.952823 -0.678077 0.00572805 -0.734969 91 86 65
2.02755 -0.114473 -1.01386 -0.020204 0.119161 -0.992669 86 78 58
2.0332 -0.115196 -1.01586 -0.110141 -0.253534 -0.961036 87 79 59
2.03303 -0.115044 -1.01521 0.251203 0.236391 -0.938625 71 56 43
2.03667 -0.11564 -1.01276 -0.159654 0.0408898 -0.986326 89 80 61
2.0356 -0.115174 -1.01633 -0.158237 -0.319599 -0.934247 88 79 60
2.04999 -0.114778 -1.01734 0.314084 0.0343564 -0.948774 91 77 58
2.04916 -0.114593 -1.01829 0.287012 -0.0267331 -0.957554 80 67 49
2.1313 -0.101357 -1.15445 -0.303314 0.221742 -0.926731 88 80 57
2.13051 -0.102774 -1.15585 -0.544555 0.666599 -0.509024 95 87 61
2.13253 -0.101291 -1.15758 0.0701651 0.873863 -0.481083 95 87 62
2.13634 -0.101621 -1.15921 0.320562 0.718569 -0.61717 94 85 60
2.13863 -0.101258 -1.15758 0.386492 0.644176 -0.660047 65 59 41
2.15472 -0.102054 -1.15593 0.431385 0.0124786 -0.902082 21 12 2
2.15676 -0.101851 -1.1562 0.526691 -0.131068 -0.839892 19 11 2
2.16085 -0.102687 -1.15422 0.548076 -0.016695 -0.836262 16 9 5
1.68554 -0.126318 -0.815241 -0.352108 0.621432 -0.699888 83 63 65
1.68921 -0.125784 -0.814596 0.165355 0.223828 -0.960499 97 65 64
1.69049 -0.125941 -0.813304 0.173637 0.29284 -0.940263 108 77 74
1.7042 -0.128547 -0.805227 0.143149 -0.187262 -0.971824 37 39 89
1.70712 -0.128537 -0.804758 0.188148 -0.0126282 -0.98206 60 62 120
1.72857 -0.132972 -0.759669 0.635011 -0.145017 -0.75877 38 43 92
1.76018 -0.141254 -0.699391 0.845325 0.220924 -0.486434 36 26 15
1.76251 -0.142206 -0.690874 0.791709 -0.132109 -0.596443 66 50 29
1.76969 -0.141238 -0.690947 -0.548139 0.0792058 -0.832628 173 145 103
1.77116 -0.14384 -0.690126 0.219232 -0.260237 -0.940327 173 140 95
1.77281 -0.141224 -0.690357 -0.521645 -0.249023 -0.816011 214 178 122
1.77523 -0.141538 -0.693508 -0.342612 -0.551118 -0.760846 206 162 104
1.77735 -0.141848 -0.692426 -0.390119 -0.4456 -0.805759 145 87 43
1.78065 -0.141958 -0.691663 0.189204 -0.322602 -0.927432 141 69 31
1.79074 -0.141733 -0.692098 -0.444058 -0.306314 -0.842012 116 29 25
1.79355 -0.14189 -0.69253 -0.202216 -0.44479 -0.872508 51 12 6
1.79244 -0.144211 -0.69154 -0.19524 -0.424254 -0.884245 45 16 8
1.79545 -0.144332 -0.691011 -0.233409 -0.501271 -0.833215 18 11 6
1.79823 -0.141895 -0.693247 -0.382594 -0.307365 -0.871291 15 10 5
1.80086 -0.141751 -0.693409 -0.49148 -0.344735 -0.799753 13 10 6
1.80148 -0.143428 -0.698767 -0.597163 -0.0466173 -0.800764 9 8 2
1.84594 -0.136601 -0.749829 0.482856 0.378636 -0.789611 10 6 2
1.84585 -0.138107 -0.75258 0.634496 0.263915 -0.726473 10 7 4
1.85008 -0.136906 -0.749605 0.701229 0.376961 -0.605127 26 29 29
1.84778 -0.138727 -0.752595 0.70143 0.238535 -0.671638 11 11 8
1.84798 -0.136755 -0.750502 0.630046 0.345663 -0.695384 8 8 5
1.84892 -0.137405 -0.748128 0.792476 0.0696447 -0.605914 18 18 18
1.85244 -0.137804 -0.744746 0.749296 0.209614 -0.628186 59 69 74
1.85452 -0.137938 -0.743189 0.638992 0.200546 -0.742611 62 71 74
1.88664 -0.164127 -0.527529 0.148588 -0.600686 -0.785556 38 31 19
1.89106 -0.163142 -0.526183 0.711206 -0.346947 -0.611403 39 31 22
1.89313 -0.162945 -0.527375 0.601725 0.151323 -0.784237 58 49 33
1.89347 -0.164634 -0.527708 0.425701 0.283887 -0.859178 42 35 24
1.89506 -0.162566 -0.526361 0.412834 0.358907 -0.837111 53 46 34
2.09989 -0.208293 -0.16953 0.237418 -0.363559 -0.900809 6 4 1
2.10437 -0.20861 -0.170098 0.278116 0.0712265 -0.957903 9 7 2
2.11338 -0.208828 -0.159381 0.199764 0.867809 -0.454975 12 8 2
2.4854 -0.343429 0.959454 -0.75329 -0.0422641 -0.65633 77 74 55
2.48531 -0.341187 0.95025 -0.886735 0.154379 -0.435739 82 79 59
2.02986 -0.113324 -1.01391 -0.618198 0.185791 -0.763749 86 78 59
2.02918 -0.113011 -1.01655 0.0076542 -0.780174 -0.625516 86 78 59
2.03271 -0.112515 -1.01835 -0.0375182 -0.62535 -0.779442 87 78 59
2.03353 -0.112767 -1.01908 -0.152152 -0.34586 -0.925868 87 79 60
2.03452 -0.113006 -1.01796 -0.392012 -0.574192 -0.71877 88 79 60
2.03372 -0.112871 -1.01872 -0.202604 -0.435542 -0.877072 88 79 60
2.04901 -0.112962 -1.01762 0.276195 0.0372935 -0.960378 87 71 53
2.04802 -0.112802 -1.01845 0.27609 0.0422946 -0.960201 77 62 45
2.05912 -0.113722 -1.01073 0.584859 -0.050541 -0.809559 102 83 65
2.06075 -0.113507 -1.01136 0.310637 -0.640277 -0.702531 88 82 62
2.13361 -0.100934 -1.1575 -0.277754 0.790824 -0.54539 95 87 62
2.13579 -0.100197 -1.1572 -0.006688 0.865471 -0.500914 94 85 60
2.13951 -0.100509 -1.15651 0.0410845 0.710106 -0.702895 96 88 63
2.13982 -0.101038 -1.15609 0.192214 0.696669 -0.691163 96 88 63
2.13827 -0.100062 -1.15814 0.342964 0.351861 -0.870959 95 86 61
2.13817 -0.100671 -1.15795 0.384125 0.558411 -0.735272 65 58 41
2.15703 -0.101579 -1.15772 0.541588 0.125093 -0.831285 39 29 19
2.16174 -0.102108 -1.15225 0.371077 -0.100549 -0.923143 17 10 5
1.6872 -0.1238 -0.81265 0.287884 0.172795 -0.941947 108 91 89
1.69005 -0.123314 -0.813293 0.163636 0.31275 -0.935634 166 153 147
1.69425 -0.124738 -0.814302 0.20535 0.568475 -0.79666 148 136 127
1.69957 -0.124594 -0.812158 0.75535 0.50889 -0.412888 127 114 108
1.70854 -0.126008 -0.804477 0.248333 -0.0812969 -0.965257 61 64 120
1.71222 -0.125567 -0.800497 0.6346 -0.340781 -0.69365 42 43 68
1.72091 -0.127899 -0.798445 0.344665 -0.0555755 -0.937079 11 13 26
1.7609 -0.139423 -0.689714 -0.584231 -0.0257583 -0.811178 44 33 20
1.76432 -0.139071 -0.689855 -0.562987 0.306705 -0.767449 126 109 93
1.76456 -0.140538 -0.690224 0.827863 -0.185277 -0.529449 139 122 103
1.77002 -0.138678 -0.690474 -0.271877 -0.112351 -0.955751 190 165 133
1.77377 -0.139581 -0.696144 -0.430457 -0.192053 -0.881942 185 152 104
1.77973 -0.138747 -0.695195 -0.0447979 -0.4014 -0.914807 175 123 63
1.78278 -0.138891 -0.694782 -0.116528 -0.709564 -0.694939 170 112 55
1.79162 -0.139795 -0.691238 -0.55685 -0.210959 -0.803377 144 43 41
1.79449 -0.140539 -0.693257 0.0758905 -0.511884 -0.855696 54 10 6
1.79732 -0.138912 -0.692972 0.0812826 -0.338192 -0.93756 33 9 4
1.80267 -0.140705 -0.691197 0.783921 0.257555 -0.56492 12 9 4
1.84503 -0.135898 -0.749014 0.785815 0.295478 -0.543312 8 5 1
1.84314 -0.13624 -0.749059 -0.142521 0.82627 -0.544946 9 6 1
1.84702 -0.13623 -0.75026 0.478754 0.438721 -0.760473 7 5 2
1.84862 -0.134198 -0.749644 0.747777 0.155193 -0.645558 8 6 5
1.85065 -0.134619 -0.749064 0.585571 0.159058 -0.794863 18 20 22
1.85269 -0.135265 -0.749261 0.492648 0.372265 -0.786586 54 61 65
1.85126 -0.134306 -0.748852 0.587577 0.016909 -0.808992 24 28 30
1.85357 -0.135053 -0.749019 0.681001 0.261194 -0.684117 76 86 91
1.85357 -0.135097 -0.744554 0.794955 -0.158002 -0.585731 55 66 76
1.88861 -0.160741 -0.527581 0.686641 -0.38661 -0.615676 30 24 16
1.89132 -0.159799 -0.528224 0.758127 -0.0518549 -0.650042 54 46 36
1.89299 -0.159881 -0.526665 0.766264 0.0496713 -0.640603 67 59 47
1.89287 -0.161348 -0.527856 0.711578 0.127674 -0.690909 62 53 37
1.89466 -0.161135 -0.526411 0.797515 0.0562164 -0.600675 61 53 41
2.10187 -0.205327 -0.169287 0.49537 0.0795948 -0.865028 7 5 2
2.10616 -0.205255 -0.168675 0.261234 0.0874073 -0.96131 10 7 2
2.11037 -0.204244 -0.161356 0.733338 -0.110972 -0.670746 12 8 2
2.48288 -0.333466 0.951373 -0.881578 0.0379874 -0.470508 69 66 48
2.48336 -0.333972 0.948491 -0.838259 0.352449 -0.416055 73 70 51
2.14245 -0.159299 -0.605344 0.140825 -0.0220624 -0.989789 37 34 25
2.14585 -0.158971 -0.607682 0.145319 0.0255181 -0.989056 39 35 25
2.14535 -0.159322 -0.606212 0.140401 0.0175468 -0.989939 39 35 25
2.03074 -0.110592 -1.019 -0.101927 -0.741965 -0.662645 87 79 60
2.03403 -0.110363 -1.02235 -0.335049 -0.484484 -0.808095 89 81 62
2.03388 -0.110396 -1.02126 -0.386248 -0.579749 -0.717428 89 81 62
2.05948 -0.111369 -1.01164 0.469084 0.161977 -0.868172 104 85 65
2.13432 -0.0985393 -1.1571 -0.74614 -0.052869 -0.663687 96 86 62
2.13916 -0.0985639 -1.15743 -0.484735 0.226135 -0.844923 97 87 63
2.13907 -0.0990596 -1.1571 -0.128972 0.129092 -0.98321 96 87 62
2.16108 -0.0987964 -1.154 0.505942 -0.205674 -0.837688 36 31 20
1.68461 -0.120764 -0.812901 0.0425699 0.732575 -0.679354 107 97 92
1.68971 -0.121102 -0.811673 0.162821 0.31824 -0.933923 200 193 186
1.69094 -0.121285 -0.810577 0.161764 0.334308 -0.928478 224 217 208
1.6955 -0.121332 -0.813012 0.418998 0.292024 -0.859746 249 244 232
1.69568 -0.121295 -0.813343 0.48407 0.184906 -0.855269 249 244 232
1.69944 -0.122666 -0.810949 0.539628 0.241051 -0.806658 212 199 191
1.70369 -0.123391 -0.807232 0.165262 0.0638114 -0.984183 98 91 102
1.70563 -0.124306 -0.805176 -0.0686137 -0.242522 -0.967717 33 31 73
1.7095 -0.123607 -0.803373 -0.444131 -0.256352 -0.858506 61 64 123
1.72214 -0.125492 -0.797779 0.402701 -0.0735744 -0.91237 12 12 23
1.76258 -0.136488 -0.690024 0.221882 -0.217341 -0.950543 42 31 21
1.76569 -0.13648 -0.689382 0.0736531 -0.116995 -0.990398 171 155 143
1.76867 -0.136439 -0.69077 0.52453 -0.243318 -0.815883 201 184 165
1.77278 -0.136897 -0.691484 -0.411698 -0.141873 -0.900209 203 176 136
1.77622 -0.136065 -0.695596 -0.38202 -0.239385 -0.892612 212 182 131
1.77636 -0.13788 -0.69577 0.0860147 -0.500048 -0.861716 203 165 109
1.77843 -0.136423 -0.69394 0.276371 -0.107793 -0.954987 187 152 106
1.78124 -0.136306 -0.694224 0.032132 0.197767 -0.979722 193 142 75
1.78436 -0.136622 -0.691151 0.816758 0.130262 -0.562084 201 126 78
1.7879 -0.137564 -0.692735 -0.267651 -0.268639 -0.925309 183 66 51
1.78873 -0.137048 -0.692967 -0.280403 -0.169903 -0.944726 185 59 49
1.79028 -0.137221 -0.69213 -0.547318 -0.20983 -0.810194 196 63 60
1.79324 -0.137224 -0.693834 -0.114473 -0.152557 -0.981643 155 40 42
1.79637 -0.137288 -0.693665 -0.015408 -0.0970473 -0.99516 72 14 12
1.79909 -0.137408 -0.692652 0.381775 0.00113945 -0.924255 24 7 4
1.80029 -0.139007 -0.691851 0.589186 -0.0147304 -0.807863 12 10 6
1.80252 -0.137555 -0.690713 0.0107394 0.191646 -0.981405 12 7 5
1.80575 -0.138429 -0.690437 0.245004 0.424514 -0.871643 10 7 4
1.80908 -0.138045 -0.691859 -0.588847 0.310625 -0.746171 7 6 4
1.81206 -0.138982 -0.695131 -0.347719 0.728389 -0.590373 7 7 5
1.81494 -0.136972 -0.698138 -0.48148 0.56265 -0.672013 6 5 3
1.8037 -0.0815483 -1.21618 0.777166 0.360121 -0.516068 38 32 22
1.80493 -0.0819661 -1.21598 0.798878 0.292359 -0.525662 37 31 20
1.84685 -0.133313 -0.749453 0.752464 0.170907 -0.636072 9 6 3
1.84997 -0.132034 -0.748554 0.183402 -0.421321 -0.888174 9 9 10
1.85209 -0.132788 -0.747786 0.0495753 0.404735 -0.913089 36 42 45
1.85296 -0.131836 -0.74974 0.156141 -0.35148 -0.923083 35 41 45
1.85622 -0.132481 -0.746497 0.127368 -0.288894 -0.948851 55 66 70
1.88623 -0.155622 -0.536629 0.502993 0.287479 -0.815079 11 7 4
1.88883 -0.155692 -0.53532 0.316268 0.101298 -0.943246 42 35 25
1.89054 -0.157062 -0.529165 0.650454 -0.3852 -0.654623 51 43 32
1.89349 -0.156409 -0.527214 0.607585 -0.0986036 -0.78811 84 76 62
1.95071 -0.205424 -0.0843519 0.207033 -0.417745 -0.884662 63 52 37
2.0842 -0.201385 -0.163194 -0.812058 0.0617344 -0.580302 10 7 2
2.08247 -0.202974 -0.163269 -0.802166 0.0749259 -0.592381 11 8 2
2.09963 -0.19953 -0.171438 0.309809 0.135419 -0.941106 6 3 1
2.10424 -0.201706 -0.16979 0.307185 0.0702977 -0.94905 10 6 2
2.10798 -0.201853 -0.1676 0.0620576 -0.78783 -0.612758 11 8 3
2.14577 -0.156647 -0.606745 0.146098 0.0271335 -0.988898 38 36 25
2.14577 -0.156247 -0.60847 0.14315 0.0643127 -0.987609 38 35 25
2.14605 -0.156272 -0.608381 0.141852 0.0699724 -0.987412 39 36 25
2.03507 -0.107792 -1.02428 0.178648 -0.727979 -0.661915 88 81 61
2.03814 -0.108528 -1.02405 0.177044 -0.728692 -0.661561 87 80 60
2.05293 -0.108981 -1.02281 0.439929 0.355192 -0.824804 69 55 39
2.05904 -0.11103 -1.01303 0.298678 -0.135647 -0.944665 102 83 64
2.0583 -0.109009 -1.01826 0.388842 0.351627 -0.851563 90 70 53
2.13363 -0.0971647 -1.15512 -0.403762 0.0989231 -0.9095 97 88 63
2.13546 -0.0973611 -1.15654 -0.436361 0.641711 -0.630711 97 87 63
2.16093 -0.0970513 -1.15292 0.013958 -0.559072 -0.829002 52 44 30
1.68451 -0.119476 -0.811256 0.0919718 0.764265 -0.638311 174 168 165
1.68943 -0.120494 -0.808158 0.331617 0.659101 -0.674994 228 219 208
1.69565 -0.119727 -0.810933 0.786101 0.45673 -0.416464 254 251 242
1.69784 -0.12027 -0.810428 0.75774 0.504709 -0.41364 252 247 235
1.70105 -0.120196 -0.810646 0.155483 0.24694 -0.956476 226 218 205
1.70332 -0.120792 -0.809204 0.153683 0.44153 -0.883987 153 142 138
1.70507 -0.121531 -0.805566 0.623407 0.173985 -0.762295 139 130 141
1.70646 -0.119668 -0.803917 0.174023 -0.0428473 -0.983809 98 98 131
1.72112 -0.122872 -0.798612 0.620122 -0.220718 -0.752816 38 41 80
1.73619 -0.129076 -0.735157 0.778906 -0.339309 -0.527423 44 45 65
1.75487 -0.133053 -0.689171 -0.368136 0.234042 -0.899833 24 19 13
1.76133 -0.13378 -0.691304 0.0612631 -0.109994 -0.992042 27 19 11
1.76488 -0.134115 -0.690268 0.50965 -0.315325 -0.800516 139 127 114
1.76427 -0.133813 -0.690288 0.0243448 0.0680943 -0.997382 103 93 79
1.76765 -0.133846 -0.689258 0.498287 -0.285314 -0.818722 240 232 217
1.77063 -0.133461 -0.691126 -0.316581 -0.197131 -0.927855 248 245 222
1.77448 -0.133336 -0.693645 -0.0903613 -0.0320132 -0.995394 253 246 212
1.77538 -0.132785 -0.694764 -0.581895 -0.0831006 -0.809007 252 246 209
1.77988 -0.133676 -0.695845 -0.0720904 0.413785 -0.907516 205 167 103
1.78276 -0.133777 -0.693018 0.406311 -0.00724373 -0.913706 178 127 81
1.7869 -0.134404 -0.691618 0.660089 0.297059 -0.689955 191 72 53
1.79044 -0.133796 -0.693574 -0.548136 -0.234853 -0.80274 209 66 65
1.79048 -0.134712 -0.692742 -0.402673 -0.098357 -0.910044 193 52 50
1.79445 -0.134437 -0.693463 0.344978 0.236004 -0.908456 176 47 50
1.79725 -0.134748 -0.692281 0.462674 0.257453 -0.848322 91 21 20
1.80009 -0.134971 -0.691226 0.0310452 0.617433 -0.78601 21 7 4
1.79984 -0.134709 -0.691234 0.00871782 0.443835 -0.896066 26 8 4
1.80838 -0.135633 -0.692355 -0.210054 0.775955 -0.594787 7 5 6
1.812 -0.136116 -0.694122 -0.115912 0.636339 -0.762651 6 6 6
1.80062 -0.0801642 -1.21852 0.228377 -0.723573 -0.651373 16 13 6
1.80176 -0.080342 -1.21639 0.228824 -0.481645 -0.845965 20 14 7
1.80332 -0.0799103 -1.21735 0.612688 -0.435018 -0.659827 26 20 11
1.80539 -0.0805281 -1.21558 0.825206 0.160735 -0.541479 38 31 21
1.84818 -0.13151 -0.747513 0.608134 0.138429 -0.781671 14 13 13
1.85193 -0.129722 -0.747413 0.322013 -0.701507 -0.635764 12 15 20
1.8519 -0.129751 -0.747269 0.325564 -0.697174 -0.638715 12 15 20
1.85465 -0.12941 -0.74999 0.110182 -0.294646 -0.949233 30 36 44
1.85524 -0.129946 -0.748178 0.470026 -0.283668 -0.835827 58 64 72
1.85876 -0.13016 -0.747541 0.782019 -0.183946 -0.595492 70 82 97
1.86424 -0.130003 -0.743921 0.709342 -0.288025 -0.643331 37 48 66
1.88856 -0.153769 -0.532768 0.312896 0.0694863 -0.947242 22 16 9
1.88766 -0.153449 -0.532338 0.128922 0.255807 -0.958093 17 12 6
1.88733 -0.152879 -0.534637 0.0834213 0.131617 -0.987784 33 29 19
1.888 -0.152832 -0.535488 0.319822 0.143031 -0.93662 35 30 20
1.88701 -0.153514 -0.534882 0.313351 0.0717616 -0.946922 32 28 19
1.89247 -0.154183 -0.529422 0.293357 -0.0699266 -0.953442 70 61 46
1.89428 -0.155122 -0.532033 0.0958981 -0.552118 -0.828232 65 57 44
1.94845 -0.203925 -0.0829772 0.0663407 0.355274 -0.932405 62 55 36
1.95698 -0.200875 -0.0882903 0.622665 0.0117946 -0.7824 58 48 35
2.08431 -0.197085 -0.160703 -0.811851 0.0617763 -0.580587 10 7 1
2.08261 -0.19845 -0.161793 -0.794969 0.0497315 -0.604608 11 7 2
2.08313 -0.198857 -0.162057 -0.808625 0.0814822 -0.582654 10 7 2
2.10123 -0.198433 -0.170326 0.115838 0.183275 -0.976213 8 4 2
2.10077 -0.198724 -0.170626 0.0522815 0.160273 -0.985687 7 4 2
2.10623 -0.197908 -0.168088 0.335498 0.0749241 -0.939057 11 7 2
2.1091 -0.195079 -0.173814 0.491613 -0.0303065 -0.870286 11 8 3
2.15519 -0.159893 -0.53151 0.444545 0.108095 -0.88921 58 45 35
2.15744 -0.16012 -0.52975 0.466971 0.126034 -0.875245 86 71 54
2.03428 -0.107249 -1.02488 0.0363485 -0.728844 -0.683715 89 81 61
2.03879 -0.105932 -1.02499 0.389235 -0.589513 -0.707793 87 78 59
2.03763 -0.105906 -1.02589 0.275467 -0.675794 -0.683682 87 78 59
2.05614 -0.106898 -1.01969 0.272465 0.0977675 -0.957186 84 66 51
2.05408 -0.106671 -1.02191 0.345485 0.195461 -0.917843 70 56 41
2.05764 -0.107049 -1.01864 0.298018 0.220257 -0.928802 93 75 59
2.0597 -0.108137 -1.01592 0.590315 -0.00549892 -0.807154 92 75 55
2.05834 -0.107321 -1.01737 0.432664 0.136828 -0.891112 89 72 53
1.6807 -0.11707 -0.807655 0.197393 0.00677137 -0.980301 252 248 245
1.68363 -0.117062 -0.807148 0.206478 0.683001 -0.700626 254 253 249
1.68953 -0.11794 -0.80771 0.0386722 0.842619 -0.537119 249 242 234
1.69986 -0.117758 -0.808623 -0.0935451 0.804463 -0.58659 253 251 239
1.69915 -0.117861 -0.809563 0.634256 0.422845 -0.647242 254 252 241
1.70223 -0.118142 -0.809284 0.611912 0.251509 -0.749871 236 230 217
1.70456 -0.118749 -0.806032 0.511162 0.3748 -0.773459 190 180 176
1.71503 -0.119657 -0.800799 0.707802 -0.347524 -0.615014 40 43 63
1.71918 -0.119816 -0.800129 0.279485 0.027136 -0.959767 44 53 102
1.72262 -0.120494 -0.798849 0.149875 0.0761705 -0.985767 34 35 74
1.74574 -0.126288 -0.723911 0.317806 -0.619174 -0.718069 11 10 6
1.7525 -0.1298 -0.69165 -0.172114 -0.612664 -0.771376 16 12 6
1.75629 -0.132453 -0.689266 -0.356959 -0.000649464 -0.93412 22 16 10
1.76056 -0.13225 -0.692447 0.525732 -0.160348 -0.835401 23 16 9
1.76329 -0.131371 -0.690608 0.0243562 -0.100176 -0.994672 82 75 62
1.76647 -0.131372 -0.69052 0.447649 -0.22281 -0.866006 199 194 181
1.77289 -0.130402 -0.693792 -0.0678448 0.386507 -0.919788 176 178 151
1.78936 -0.131889 -0.693048 -0.196891 0.311855 -0.929505 196 51 50
1.79116 -0.131453 -0.693421 -0.565563 -0.0900195 -0.819778 197 54 54
1.79363 -0.132765 -0.69476 -0.524828 -0.14168 -0.839335 194 56 56
1.7988 -0.132211 -0.689887 0.592775 0.391331 -0.703902 67 19 18
1.8031 -0.133586 -0.690679 0.413901 0.197805 -0.888571 10 7 6
1.80735 -0.132596 -0.686568 0.01865 0.806503 -0.590935 6 5 6
1.80252 -0.0779953 -1.21797 0.707541 0.288374 -0.645156 13 8 3
1.80443 -0.0779582 -1.21712 0.473324 -0.45754 -0.752743 19 14 7
1.80482 -0.079376 -1.21676 0.70633 -0.389929 -0.590808 35 29 20
1.80508 -0.0785449 -1.21707 0.251309 -0.169393 -0.952969 32 26 17
1.85193 -0.12679 -0.750678 0.361466 -0.693157 -0.623599 53 57 59
1.85627 -0.126998 -0.74998 0.232178 -0.696791 -0.678658 48 57 66
1.86143 -0.129412 -0.746239 0.449442 -0.543186 -0.70919 60 70 82
1.86429 -0.127191 -0.745549 0.769947 -0.224785 -0.597205 33 38 41
1.88665 -0.150541 -0.531344 -0.0520143 0.459525 -0.886641 21 19 11
1.88761 -0.15156 -0.53368 0.315231 0.0827556 -0.9454 37 32 21
1.88612 -0.150018 -0.533485 0.140315 0.440952 -0.886495 18 17 11
1.89358 -0.152325 -0.532383 0.284921 0.411838 -0.865569 62 55 39
2.08264 -0.194774 -0.159971 -0.811683 0.0440102 -0.582438 11 8 3
