ply
format ascii 1.0
element vertex 717
property float x
property float y
property float z
property float nx
property float ny
property float nz
property uchar diffuse_red
property uchar diffuse_green
property uchar diffuse_blue
end_header
0.00735712 0.849523 4.153 -0.734845 0.163764 -0.658167 252 253 242
0.0115828 0.84486 4.13958 -0.644977 0.374878 -0.665936 249 249 231
0.0192522 0.851099 4.15104 -0.711999 0.230893 -0.663134 253 255 248
0.0277103 0.85047 4.14515 0.663131 0.44042 -0.605217 254 255 252
0.0290412 0.849982 4.14477 0.626983 0.480016 -0.613578 254 255 252
0.103195 0.877799 4.27993 0.838526 -0.0408409 -0.543329 254 255 245
0.102981 0.879691 4.28762 0.808726 0.0110179 -0.588083 254 255 245
0.103044 0.876527 4.27371 0.846242 -0.0676548 -0.528486 254 255 245
0.111816 0.88385 4.31191 0.708153 0.365593 -0.604037 250 250 217
0.116308 0.883521 4.3158 0.796861 -0.403102 -0.450024 252 250 210
0.168307 0.909834 4.43779 0.703287 -0.573315 -0.420354 253 254 239
0.178878 0.908469 4.44748 0.687747 -0.345748 -0.638328 253 255 243
0.185937 0.914167 4.47278 0.804353 -0.357443 -0.474605 253 254 235
0.193756 0.922804 4.50748 0.709727 -0.438922 -0.551032 252 254 231
0.194839 0.92433 4.50764 0.755899 -0.476223 -0.449252 251 251 223
0.196687 0.924849 4.5165 0.758996 -0.472969 -0.447466 252 253 231
0.198287 0.923026 4.51676 0.651097 -0.638125 -0.410937 254 254 240
0.199903 0.92252 4.50479 0.677014 -0.604521 -0.41977 253 253 234
1.1733 0.964594 4.71317 -0.821688 -0.396057 -0.409839 226 238 244
1.17886 0.96415 4.70577 -0.817179 -0.189153 -0.544463 215 227 236
1.19043 0.960839 4.69684 -0.576704 -0.110569 -0.809437 137 145 151
1.20161 0.962101 4.68987 -0.235321 -0.870723 -0.431817 8 10 11
1.19957 0.958028 4.68548 -0.792261 -0.0754461 -0.6055 4 5 4
1.20428 0.959222 4.67548 0.0169472 0.54518 -0.838148 4 5 5
1.2074 0.952003 4.6445 -0.123147 0.750815 -0.648931 8 10 8
-0.764615 0.739123 3.5928 0.533526 -0.807554 -0.251408 40 38 34
-0.756155 0.740534 3.60811 0.918521 -0.0706882 -0.389001 74 70 63
-0.756036 0.742554 3.60879 0.942284 0.00102968 -0.334813 74 70 62
-0.752565 0.743812 3.61366 0.653692 0.507155 -0.561677 54 50 41
-0.752863 0.744358 3.6141 0.694326 0.49162 -0.525567 55 51 41
-0.602981 0.713417 3.4666 0.209118 -0.283779 -0.935809 110 93 75
-0.597104 0.711548 3.46496 0.561683 0.286159 -0.776289 71 53 35
-0.591715 0.716713 3.4727 0.543466 -0.144304 -0.826935 92 73 55
-0.579277 0.715348 3.48274 0.717476 -0.403898 -0.567534 168 153 131
-0.576194 0.719279 3.48995 0.883973 -0.0492222 -0.46494 201 187 166
-0.569442 0.718161 3.49847 0.903219 -0.0388715 -0.427416 109 89 67
-0.5645 0.719919 3.49413 0.87597 -0.109087 -0.469868 97 76 54
-0.556279 0.727146 3.53738 -0.344945 -0.744811 -0.571199 97 73 50
-0.53035 0.719983 3.50411 -0.342132 -0.367421 -0.864839 108 81 58
-0.529862 0.719977 3.50363 -0.535845 -0.450353 -0.714179 110 83 60
-0.514429 0.722661 3.50459 0.239049 -0.819205 -0.521305 124 96 73
-0.508145 0.722937 3.51423 0.276677 -0.706548 -0.651337 134 105 82
-0.495939 0.722277 3.50749 0.599434 -0.75066 -0.277826 116 87 63
-0.446093 0.716198 3.48577 -0.134366 -0.346819 -0.928258 222 202 172
-0.422308 0.718163 3.47882 0.911051 -0.176927 -0.372401 188 160 130
-0.415871 0.716213 3.48854 0.916618 -0.121777 -0.380766 246 240 210
-0.413007 0.720769 3.49834 0.913026 -0.14384 -0.381699 248 231 199
-0.405556 0.723342 3.51319 0.792822 -0.303106 -0.528735 234 217 183
-0.401603 0.726063 3.5212 0.405175 -0.311113 -0.859676 254 247 214
-0.397097 0.726715 3.52006 0.854576 -0.393043 -0.339436 226 209 175
-0.397387 0.726186 3.52276 0.837684 -0.0404334 -0.544656 224 208 173
-0.387462 0.726288 3.52988 0.622721 0.223239 -0.749922 184 152 119
-0.382617 0.730271 3.53543 0.410459 -0.855271 -0.316283 184 150 115
-0.371129 0.729811 3.55107 -0.000377728 -0.874339 -0.485316 184 152 117
-0.27088 0.812451 3.9574 0.0126299 -0.909907 -0.41462 230 190 158
-0.250097 0.813031 3.9528 -0.714264 -0.187627 -0.674257 171 124 88
-0.242319 0.810626 3.93495 -0.253729 -0.837521 -0.483922 181 136 98
-0.234261 0.809145 3.93992 -0.303157 -0.789969 -0.532959 237 209 176
-0.228207 0.812712 3.9507 0.881294 -0.225764 -0.415153 181 131 91
-0.222 0.811397 3.95017 0.578781 -0.674473 -0.458365 216 171 131
-0.213844 0.815181 3.95901 0.794304 -0.307214 -0.52412 226 176 139
-0.208152 0.817107 3.9623 0.644542 -0.563361 -0.516904 161 109 71
-0.2026 0.817764 3.96836 0.766464 -0.528267 -0.365332 155 104 68
-0.196935 0.819477 3.97336 0.749704 -0.55246 -0.364324 185 136 96
-0.191024 0.820649 3.97657 0.576837 -0.747195 -0.33009 209 157 116
-0.19039 0.819097 3.98756 0.359097 -0.865933 -0.348152 196 145 104
-0.181088 0.819897 3.99279 0.356696 -0.863661 -0.356171 239 190 143
-0.151956 0.814628 3.96322 0.808053 0.228977 -0.542789 243 217 175
-0.151092 0.818091 3.96345 0.720314 0.370922 -0.586145 254 244 206
-0.144691 0.81763 3.97828 0.859178 -0.0542555 -0.508792 249 241 211
-0.142739 0.81939 3.98332 0.862347 -0.148561 -0.484034 248 239 207
-0.136778 0.81988 3.98796 -0.210184 0.694067 -0.688545 249 229 191
-0.137837 0.823165 3.9891 0.844404 -0.20127 -0.496461 253 243 204
-0.135382 0.819961 3.99125 -0.342625 0.661367 -0.667234 250 230 191
-0.115889 0.82341 4.00978 0.321728 -0.880926 -0.347074 254 248 221
-0.113553 0.824507 4.00263 0.49716 -0.798134 -0.340314 254 252 231
-0.108501 0.825919 4.01725 0.0152234 -0.913672 -0.406167 253 243 211
-0.0963124 0.827361 4.01927 0.339738 -0.869477 -0.358591 240 211 168
-0.0884808 0.828667 4.03489 -0.0593223 -0.903911 -0.423587 252 234 194
-0.0802835 0.83196 4.02848 0.448578 -0.827775 -0.336995 241 215 170
-0.0714166 0.836459 4.04839 0.19458 -0.906837 -0.373879 247 240 206
-0.0714166 0.836459 4.04839 0.19458 -0.906837 -0.373879 247 240 206
-0.0714166 0.836459 4.04839 0.19458 -0.906837 -0.373879 247 240 206
-0.0539468 0.836288 4.04821 0.599323 -0.717335 -0.355307 253 254 244
0.0144964 0.857179 4.1541 -0.619221 0.189819 -0.761928 251 255 250
0.0221314 0.854105 4.14768 0.576622 0.129826 -0.80663 253 255 250
0.0290281 0.85622 4.14727 0.0744177 0.546758 -0.833977 253 254 246
0.114857 0.894741 4.33512 0.704803 0.36801 -0.606483 253 254 228
0.120914 0.899174 4.36137 0.403971 -0.0849959 -0.910815 253 253 229
0.120914 0.899174 4.36137 0.403971 -0.0849959 -0.910815 253 253 229
0.126867 0.89884 4.3624 0.329345 0.675964 -0.659246 252 254 237
0.156046 0.913763 4.43049 0.730672 -0.53243 -0.42736 252 255 235
0.162158 0.91333 4.43149 0.422433 -0.333797 -0.842692 253 255 237
0.173627 0.914236 4.44092 0.819265 -0.0147578 -0.573226 252 254 220
0.183439 0.91891 4.45186 0.798496 -0.359808 -0.482641 254 253 218
0.18346 0.919173 4.45289 0.797138 -0.385219 -0.464949 254 253 217
0.187753 0.919513 4.47624 0.798951 -0.378998 -0.466945 254 253 218
0.190812 0.920839 4.458 0.831462 -0.252134 -0.495076 252 247 204
0.19432 0.925933 4.49313 0.640666 -0.651252 -0.406716 247 242 198
0.198033 0.926982 4.48712 0.588284 -0.312706 -0.745746 244 236 189
0.198662 0.926038 4.4894 0.386566 -0.85082 -0.355909 244 237 191
0.20564 0.927524 4.49784 0.687485 -0.581815 -0.434575 248 240 193
0.204122 0.927714 4.48994 0.0295071 -0.701236 -0.712319 246 236 189
0.820085 1.00354 4.87482 -0.584796 0.564643 -0.582402 184 188 188
1.17618 0.973223 4.70245 -0.784557 -0.467108 -0.407776 242 251 253
1.17634 0.972794 4.70445 -0.838943 -0.366721 -0.402107 241 250 253
1.18548 0.970996 4.70155 -0.827228 -0.392818 -0.401732 220 230 240
1.18916 0.968499 4.6982 -0.270515 -0.240121 -0.932289 208 219 230
1.18589 0.970718 4.6983 -0.80481 -0.446071 -0.391537 219 230 240
1.19545 0.966008 4.69427 -0.588215 -0.144757 -0.795643 162 171 178
1.20176 0.967603 4.67962 -0.234793 -0.871153 -0.431237 118 126 131
1.20652 0.96446 4.67407 -0.494593 -0.13118 -0.859168 8 11 12
1.21223 0.964635 4.66854 -0.479356 -0.112506 -0.87038 4 5 5
1.20879 0.96088 4.65823 -0.249 0.709725 -0.659007 3 4 5
1.2188 0.963514 4.66162 0.194649 0.669964 -0.716422 7 8 7
1.22198 0.958113 4.64286 0.538286 0.387428 -0.74843 11 11 10
-0.760904 0.74239 3.59693 0.90697 -0.0885988 -0.411772 47 44 39
-0.758695 0.746974 3.60684 0.928596 -0.228501 -0.292399 64 61 52
-0.749804 0.747565 3.60954 0.638375 0.288394 -0.713657 56 51 41
-0.750161 0.748298 3.61104 0.880408 0.26346 -0.394297 57 52 42
-0.61455 0.720523 3.4693 -0.0804167 0.654621 -0.751668 76 58 41
-0.614487 0.720449 3.46894 -0.0233967 0.618593 -0.785363 76 58 41
-0.607746 0.715736 3.46489 0.80766 0.328973 -0.489349 98 82 62
-0.598167 0.717012 3.47125 0.912667 0.108468 -0.394049 156 141 122
-0.587301 0.71876 3.47846 0.890048 0.200699 -0.409309 93 75 54
-0.583825 0.72226 3.48078 0.585979 0.119394 -0.801482 104 87 66
-0.581368 0.720952 3.48317 -0.113979 0.322942 -0.93953 124 108 87
-0.582723 0.720385 3.483 0.659779 0.274138 -0.699672 116 100 79
-0.578964 0.723155 3.48343 0.723882 -0.40527 -0.558347 137 122 101
-0.572557 0.722682 3.49366 0.902733 0.00908097 -0.430106 121 103 81
-0.568376 0.725407 3.49313 0.845076 -0.16235 -0.509401 93 74 51
-0.560476 0.722605 3.49663 0.870162 -0.392596 -0.297804 87 65 43
-0.552741 0.723854 3.48548 -0.334228 -0.751794 -0.568416 87 65 43
-0.507543 0.726841 3.50488 -0.0713479 -0.859485 -0.506157 123 95 72
-0.499556 0.726468 3.49613 -0.62395 0.193605 -0.757102 110 81 57
-0.460524 0.7241 3.49503 -0.669684 -0.0726519 -0.739084 134 106 81
-0.454195 0.723773 3.48953 -0.586409 -0.45883 -0.667532 167 142 115
-0.450564 0.723803 3.48895 -0.438752 -0.671172 -0.597515 240 231 209
-0.418271 0.721165 3.48133 0.912482 -0.175304 -0.369656 223 203 172
-0.412988 0.724759 3.48954 0.394002 -0.848422 -0.353472 251 237 205
-0.409126 0.724436 3.50388 0.733898 -0.120792 -0.668434 220 201 168
-0.403458 0.729921 3.51329 0.79364 -0.255281 -0.552239 252 243 209
-0.393453 0.729075 3.52701 0.81912 -0.104792 -0.56397 226 199 165
-0.389238 0.731431 3.52869 0.613005 -0.385589 -0.689598 215 181 147
-0.383662 0.730569 3.52524 -0.0603559 -0.890579 -0.450807 184 149 114
-0.374336 0.732072 3.54241 0.413394 -0.851103 -0.323617 186 152 117
-0.370576 0.733492 3.53716 0.383104 -0.866507 -0.319995 218 185 149
-0.365398 0.732709 3.54058 0.486191 -0.81969 -0.302864 246 218 182
-0.270923 0.818685 3.95993 0.893742 -0.0310181 -0.447508 168 121 86
-0.236763 0.805781 3.88853 0.70316 -0.624436 -0.340068 181 133 94
-0.216212 0.817267 3.95625 0.664441 -0.19965 -0.720179 235 184 146
-0.215426 0.818419 3.95564 0.724511 -0.212482 -0.655694 228 176 137
-0.211137 0.819056 3.95917 0.601012 -0.384992 -0.700404 189 138 98
-0.210352 0.820058 3.95716 0.347899 -0.73977 -0.57594 190 138 97
-0.209279 0.820314 3.95691 0.404794 -0.71379 -0.571529 186 134 94
-0.202305 0.82188 3.95508 0.336053 -0.877232 -0.342831 203 151 110
-0.192777 0.822758 3.96097 0.329221 -0.880966 -0.339871 226 175 132
-0.189613 0.821537 3.97293 0.47586 -0.819343 -0.319741 217 165 122
-0.179939 0.822587 3.96739 0.634916 -0.688418 -0.350661 244 194 149
-0.180312 0.82071 3.96508 0.484894 -0.808684 -0.33303 244 197 152
-0.171306 0.822704 3.97611 0.378729 -0.860623 -0.340431 252 207 161
-0.158292 0.819021 3.94502 -0.512795 -0.657203 -0.552383 254 212 169
-0.120178 0.825857 3.99685 0.730496 0.055284 -0.680676 252 239 203
-0.115745 0.828632 3.99493 0.467636 -0.143161 -0.872251 254 250 222
-0.106205 0.828554 4.00513 0.321773 -0.881006 -0.346829 253 242 209
-0.0963569 0.832591 4.01292 -0.201602 -0.867855 -0.454076 253 253 241
-0.0964366 0.832837 4.01382 -0.16874 -0.87698 -0.449926 253 253 240
-0.0990508 0.832819 4.01148 -0.266444 -0.841613 -0.469781 254 252 234
-0.0882728 0.831553 4.01709 0.219521 -0.84058 -0.495213 247 232 201
-0.0810336 0.832603 4.02149 0.248468 -0.866467 -0.43301 236 205 160
-0.0790285 0.833622 4.0221 0.807732 -0.323046 -0.493164 238 215 173
-0.0790203 0.833534 4.02168 0.218576 -0.818085 -0.531941 238 214 173
-0.0790203 0.833534 4.02168 0.218576 -0.818085 -0.531941 238 214 173
-0.0711448 0.836543 4.04717 0.166367 -0.850742 -0.498558 248 241 209
-0.060678 0.838561 4.05261 0.675534 -0.632719 -0.378577 253 254 242
-0.0613815 0.840475 4.04333 0.210813 -0.906337 -0.366212 253 255 244
0.00973908 0.862664 4.15432 -0.0302185 -0.0181308 -0.999379 252 253 239
0.0221106 0.859935 4.14845 0.123813 0.565568 -0.815355 252 251 231
0.0290241 0.862716 4.15104 -0.144082 0.688194 -0.711076 252 250 223
0.0244482 0.861606 4.15104 -0.223365 0.544648 -0.808373 250 247 211
0.0249611 0.862255 4.15055 -0.172857 0.6232 -0.762721 250 246 207
0.0326929 0.859775 4.14943 -0.117555 0.612202 -0.781914 253 255 250
0.0395634 0.861406 4.14441 -0.14924 0.534924 -0.831615 254 255 250
0.0403971 0.856535 4.14463 -0.101411 0.0943742 -0.990358 254 255 248
0.117928 0.905767 4.35877 0.784874 0.209449 -0.583184 253 254 235
0.124769 0.906754 4.36932 0.6 0.486615 -0.634985 254 255 241
0.159475 0.918417 4.43011 0.749817 -0.498442 -0.435121 252 254 229
0.168084 0.91844 4.42678 0.558235 -0.56042 -0.611804 251 252 218
0.178666 0.91725 4.43736 0.844689 -0.118564 -0.521961 254 255 228
0.184329 0.920718 4.43852 0.811149 -0.33575 -0.478863 251 248 210
0.180506 0.920742 4.44215 0.481903 -0.796023 -0.366218 253 254 227
0.185014 0.921966 4.44389 0.673581 -0.605947 -0.423222 249 244 202
0.190935 0.924208 4.44727 0.809176 -0.342413 -0.47748 245 235 187
0.211659 0.932792 4.49699 0.801448 -0.362532 -0.475659 250 247 203
0.218236 0.935183 4.5013 0.769785 -0.446493 -0.456152 254 252 209
0.217432 0.93474 4.49918 0.758343 -0.470899 -0.450745 254 252 209
0.821676 1.01271 4.88825 -0.818226 0.216726 -0.532481 174 177 176
0.836995 1.01218 4.87607 -0.791449 -0.396411 -0.465259 168 169 166
0.848696 1.00551 4.85834 -0.672516 -0.439255 -0.595632 146 146 143
1.19203 0.974263 4.69568 -0.810004 -0.292496 -0.508272 217 229 239
1.19246 0.976779 4.69183 -0.821263 -0.323357 -0.470071 223 234 243
1.19969 0.971061 4.68971 -0.814966 -0.242093 -0.526518 185 194 202
1.20929 0.970748 4.67137 -0.489984 -0.116617 -0.863896 70 75 79
1.2148 0.969776 4.66511 -0.131387 0.17135 -0.97641 7 9 10
1.21731 0.96985 4.66201 -0.187134 0.618813 -0.762923 8 10 10
1.22609 0.971631 4.66549 0.424813 0.509397 -0.748364 11 11 9
-0.766681 0.744226 3.578 0.36574 0.713344 -0.597809 41 40 35
-0.764723 0.749072 3.59718 0.922038 -0.0923908 -0.375913 43 41 36
-0.761327 0.751575 3.60264 0.888307 -0.141103 -0.437037 52 49 41
-0.610732 0.72085 3.46675 -0.0319169 0.407818 -0.912505 88 71 53
-0.604025 0.721125 3.46608 -0.0326854 0.310568 -0.949989 248 244 226
-0.604769 0.720451 3.46605 0.145329 0.372128 -0.916734 236 232 214
-0.600377 0.722194 3.47008 0.659945 0.197749 -0.724823 252 246 227
-0.598498 0.72213 3.47072 0.670407 0.116352 -0.732814 234 224 204
-0.587459 0.723207 3.47254 0.881388 -0.371262 -0.292097 136 119 98
-0.580698 0.726001 3.48493 0.750662 0.374679 -0.544172 115 99 78
-0.575722 0.726841 3.48741 0.737556 -0.445526 -0.507463 195 181 161
-0.564136 0.727593 3.49508 0.45337 -0.844059 -0.286392 86 65 43
-0.546549 0.727127 3.48355 0.181974 -0.739915 -0.64762 87 64 41
-0.499396 0.726581 3.49587 -0.61027 0.208488 -0.764266 109 81 57
-0.423452 0.716668 3.43842 0.841129 -0.405227 -0.35818 238 224 197
-0.420325 0.721524 3.45705 0.804385 -0.505685 -0.311845 221 206 180
-0.414674 0.725289 3.48861 0.908438 -0.187218 -0.373751 249 232 199
-0.408059 0.730485 3.5034 0.859014 -0.387376 -0.334716 229 211 178
-0.398904 0.732217 3.51623 0.86771 -0.286662 -0.406084 236 219 185
-0.394231 0.733741 3.52049 0.777229 -0.425401 -0.463625 250 231 197
-0.385162 0.73519 3.52155 0.379475 -0.867551 -0.321487 199 161 128
-0.37466 0.736172 3.5346 0.481767 -0.82536 -0.294418 201 167 131
-0.365188 0.735975 3.52856 0.483825 -0.823614 -0.295928 217 186 150
-0.228611 0.807705 3.86642 0.629779 -0.661107 -0.407818 176 128 90
-0.221726 0.806968 3.86167 0.0685116 -0.914913 -0.397794 189 143 105
-0.219501 0.822552 3.9562 0.457286 -0.466207 -0.757325 212 161 124
-0.211056 0.802452 3.85347 -0.157199 -0.859349 -0.486629 202 153 115
-0.21428 0.823802 3.95652 0.633389 0.0743707 -0.770252 205 152 112
-0.203495 0.82367 3.95136 0.0275048 -0.909401 -0.41501 208 156 112
-0.202568 0.823944 3.95007 0.461478 -0.822383 -0.332752 209 157 114
-0.196128 0.823999 3.95759 0.510531 -0.797747 -0.320871 223 172 130
-0.190184 0.823076 3.95883 0.113429 -0.913596 -0.390483 223 172 129
-0.18155 0.824497 3.96228 0.485047 -0.805576 -0.340259 233 181 137
-0.183295 0.823141 3.94217 0.0775549 -0.915884 -0.39388 218 167 123
-0.174918 0.822901 3.95264 0.131022 -0.872349 -0.471 235 182 138
-0.176026 0.822921 3.9532 0.112258 -0.855165 -0.506054 236 183 139
-0.172897 0.824359 3.95497 0.296703 -0.221387 -0.928954 229 174 131
-0.151509 0.823771 3.94988 0.375406 -0.864485 -0.334268 245 204 160
-0.143237 0.819426 3.9339 0.126188 -0.915228 -0.382667 246 203 161
-0.142696 0.819946 3.93888 -0.0515152 -0.903183 -0.426153 246 203 161
-0.132335 0.819739 3.92282 0.0589424 -0.915568 -0.39782 238 199 155
-0.127854 0.833809 4.00078 -0.423828 0.60523 -0.673845 245 218 176
-0.106056 0.832267 3.99121 0.134039 -0.853407 -0.503716 244 210 167
-0.0982889 0.83205 3.98696 0.264362 -0.896592 -0.355295 252 237 200
-0.0881133 0.834878 4.00156 0.197578 -0.908802 -0.36748 253 252 235
-0.0802492 0.835958 4.01592 0.426082 -0.839221 -0.337878 239 216 176
-0.0712134 0.838988 4.0288 0.422428 -0.770544 -0.477302 253 254 238
-0.0579552 0.842689 4.03428 0.104689 -0.298429 -0.948673 252 254 241
-0.0512186 0.839915 4.02759 0.545675 -0.76182 -0.349099 253 255 244
-0.0518505 0.841739 4.036 0.761586 -0.51397 -0.394741 253 255 244
-0.045348 0.840712 4.03548 0.727964 -0.502191 -0.466769 251 253 239
0.0173591 0.866151 4.15221 0.454794 0.299148 -0.838852 243 235 192
0.0236305 0.866027 4.15502 -0.537677 0.492663 -0.684242 247 241 196
0.032688 0.867192 4.15505 -0.241342 0.618305 -0.747966 254 255 246
0.10522 0.91225 4.3716 0.0384424 0.0241259 -0.99897 254 255 240
0.116405 0.906372 4.3591 0.582934 0.496483 -0.643189 252 254 233
0.122176 0.913098 4.37481 0.845149 -0.0672898 -0.530278 253 254 240
0.158311 0.926097 4.42971 -0.71097 -0.440929 -0.547816 252 254 231
0.164995 0.925219 4.42595 0.0583758 -0.466781 -0.882444 251 254 229
0.174054 0.923831 4.4235 0.701014 -0.57657 -0.419698 252 254 226
0.187072 0.92422 4.42774 0.292587 -0.885764 -0.3603 241 222 174
0.1871 0.924041 4.42564 0.235517 -0.896588 -0.375049 241 223 174
0.189359 0.921409 4.42937 0.507711 -0.699299 -0.503201 248 236 189
0.187758 0.923136 4.43486 0.598363 -0.697825 -0.393704 245 231 183
0.194788 0.929475 4.46723 0.644429 -0.645688 -0.409632 254 249 204
0.198136 0.930256 4.46855 0.214727 -0.897812 -0.384481 252 247 199
0.205302 0.931312 4.47262 0.677953 -0.603221 -0.420124 250 243 196
0.213146 0.9367 4.49987 0.805331 -0.352486 -0.476651 253 252 209
0.831185 1.01609 4.87576 -0.821541 -0.325801 -0.467894 172 173 172
0.834163 1.01828 4.87235 -0.811764 -0.368908 -0.45271 170 170 169
0.838793 1.01849 4.86895 -0.695729 -0.546103 -0.466618 172 172 171
0.851875 1.01685 4.85913 -0.671526 -0.136108 -0.728373 147 147 144
1.19574 0.981252 4.68729 -0.835218 -0.383393 -0.394234 226 239 244
1.20662 0.977182 4.67489 -0.603809 -0.0416047 -0.796043 195 206 214
1.21212 0.976192 4.66857 -0.226286 0.080285 -0.970747 151 158 165
1.21686 0.976892 4.66805 0.305881 0.46947 -0.828272 86 92 96
1.22329 0.97641 4.6679 0.308992 0.560146 -0.76861 4 5 5
1.22765 0.978339 4.67082 0.369778 0.388679 -0.843916 6 6 4
1.23374 0.972439 4.66005 0.1972 0.664905 -0.720426 10 10 8
-0.776924 0.748821 3.58293 0.908027 -0.18559 -0.375558 40 40 35
-0.773419 0.752731 3.58988 0.935283 -0.21277 -0.282799 40 39 34
-0.767003 0.750495 3.58588 0.357731 0.68253 -0.637324 44 42 37
-0.768077 0.754152 3.59514 0.333366 -0.156813 -0.929665 45 42 37
-0.763071 0.755641 3.5956 0.763302 -0.189536 -0.617613 51 46 38
-0.612873 0.725196 3.46558 0.436794 0.422777 -0.794021 83 65 49
-0.607939 0.725191 3.46636 0.292279 0.225428 -0.929384 167 154 137
-0.606863 0.726025 3.46628 0.142145 0.162295 -0.97645 198 187 169
-0.604471 0.72694 3.46651 0.466402 0.154664 -0.870947 243 237 219
-0.602234 0.725692 3.46974 0.705487 0.0444384 -0.707328 252 248 229
-0.601157 0.726812 3.46983 0.565622 -0.0889193 -0.819857 244 236 218
-0.596511 0.726551 3.47001 0.269052 -0.752365 -0.601297 193 178 158
-0.59981 0.725881 3.47115 -0.219424 -0.769188 -0.600169 235 226 206
-0.58752 0.729798 3.47588 0.9315 0.00792537 -0.363656 137 122 100
-0.576676 0.731644 3.48282 0.342443 -0.747033 -0.569802 96 76 56
-0.571677 0.729739 3.48776 0.497142 -0.633244 -0.593171 127 109 88
-0.565868 0.73079 3.48583 0.334493 -0.883525 -0.32787 122 103 80
-0.540761 0.730947 3.48424 0.552405 -0.78906 -0.268763 101 77 54
-0.538098 0.730719 3.48317 0.196981 -0.903446 -0.380767 102 77 54
-0.535381 0.734293 3.49752 -0.378193 -0.719746 -0.582182 97 72 49
-0.503507 0.732495 3.49568 0.200345 -0.908063 -0.36781 110 83 59
-0.502157 0.731404 3.49678 0.359032 -0.877365 -0.318319 108 81 57
-0.417003 0.724821 3.45342 0.825317 -0.464912 -0.320483 220 204 179
-0.412202 0.726815 3.45744 0.626862 -0.723723 -0.288565 209 186 153
-0.408715 0.726037 3.46252 0.632104 -0.717266 -0.293214 238 218 184
-0.4058 0.73468 3.51058 0.67811 -0.14962 -0.71957 254 247 215
-0.401445 0.736695 3.51367 0.710936 -0.353943 -0.607695 232 217 182
-0.395054 0.738418 3.51422 0.774433 -0.424078 -0.46948 225 199 165
-0.390609 0.740363 3.52051 0.520276 -0.358792 -0.774971 203 169 135
-0.384577 0.738322 3.51309 0.211159 -0.74 -0.638601 201 164 131
-0.367409 0.738461 3.51941 0.00159989 -0.904309 -0.426876 218 189 153
-0.365117 0.739464 3.51777 0.268893 -0.879042 -0.393677 243 228 194
-0.232563 0.811834 3.87147 -0.159998 -0.875732 -0.455516 195 148 108
-0.218469 0.80769 3.84938 0.016263 -0.89848 -0.438714 216 175 134
-0.212478 0.80769 3.84959 0.0323229 -0.325043 -0.945147 246 234 205
-0.205509 0.807301 3.85504 0.639421 -0.62215 -0.45174 221 187 146
-0.193759 0.826421 3.94464 -0.0705058 -0.898858 -0.432532 212 159 116
-0.182715 0.823651 3.91693 -0.0157696 -0.910436 -0.413349 201 150 107
-0.173953 0.823101 3.92191 0.117547 -0.894876 -0.430559 218 165 120
-0.172325 0.827073 3.93675 0.686921 -0.63802 -0.347952 206 153 109
-0.164521 0.826989 3.93023 0.256031 -0.899591 -0.353813 209 154 109
-0.166159 0.825655 3.9457 -0.00960174 -0.680457 -0.732725 225 170 126
-0.158871 0.823968 3.92223 -0.511053 -0.656916 -0.554333 223 168 123
-0.141103 0.823367 3.91692 0.58447 -0.716634 -0.380567 238 195 151
-0.134896 0.822957 3.91362 0.552722 -0.760186 -0.34149 234 197 155
-0.128757 0.822805 3.91377 0.677882 -0.642902 -0.356586 244 224 190
-0.115499 0.838927 3.99446 -0.628395 0.363881 -0.687539 247 209 165
-0.118586 0.841098 4.00149 -0.424282 0.604629 -0.674099 246 214 172
-0.0983518 0.833349 3.9775 -0.186538 -0.87236 -0.451875 246 212 166
-0.0885614 0.836692 3.98289 0.256056 -0.896487 -0.361589 247 236 201
-0.0887125 0.837268 3.98533 -0.187304 -0.872395 -0.451492 247 236 201
-0.0817503 0.839715 4.00807 0.642464 -0.674746 -0.36326 248 239 207
-0.0709828 0.840598 4.0048 0.27619 -0.893588 -0.353865 252 252 232
-0.0613629 0.843641 4.02373 -0.106367 -0.896209 -0.430693 251 252 233
0.00797369 0.871397 4.15387 0.682339 -0.205567 -0.701538 253 253 245
0.0133445 0.872312 4.15339 0.502199 0.103912 -0.858486 253 253 241
0.0131869 0.872342 4.15572 -0.0323576 -0.242116 -0.969708 253 253 238
0.0196338 0.872852 4.15938 -0.495047 0.546267 -0.675663 251 249 227
0.0224743 0.87477 4.16145 -0.541371 0.511509 -0.66729 254 254 243
0.0383155 0.871278 4.14989 -0.605344 -0.0901197 -0.790846 254 255 250
0.0395453 0.86801 4.14704 -0.0614505 0.707199 -0.704339 254 255 250
0.105234 0.916983 4.36691 0.816305 0.0926419 -0.570144 254 255 242
0.112958 0.91401 4.36127 0.585943 0.465106 -0.663587 252 254 240
0.115686 0.91592 4.36446 0.795991 -0.406412 -0.448584 251 254 238
0.12812 0.916147 4.37922 0.806925 -0.217657 -0.549088 249 248 220
0.130672 0.918826 4.38174 0.799146 -0.179224 -0.573798 251 250 220
0.130126 0.919013 4.38186 0.829643 -0.288055 -0.478244 251 250 221
0.138582 0.917653 4.38276 -0.750434 -0.306035 -0.585826 253 254 240
0.179903 0.9268 4.42834 0.734567 -0.508654 -0.449092 251 253 226
0.188161 0.928565 4.42523 0.544345 -0.0843707 -0.834608 236 215 163
0.187682 0.92895 4.41925 0.120763 -0.918289 -0.377043 238 223 174
0.196145 0.938224 4.46342 0.71218 -0.557676 -0.426376 243 229 182
0.199375 0.934318 4.45971 0.543385 -0.715617 -0.438891 245 235 187
0.199003 0.934804 4.46564 0.222104 -0.903469 -0.366625 246 236 188
0.217254 0.94681 4.51306 0.773264 -0.429639 -0.466341 254 252 215
0.835941 1.02859 4.8841 -0.7884 -0.417453 -0.451838 145 144 143
0.833144 1.02549 4.88348 -0.824068 -0.334683 -0.457055 150 149 148
0.83591 1.02855 4.88392 -0.79058 -0.412821 -0.452286 145 144 143
0.835778 1.02837 4.88299 -0.791959 -0.41692 -0.446071 145 144 143
0.83613 1.02825 4.88268 -0.755858 -0.478543 -0.446851 146 145 144
0.836308 1.02824 4.88359 -0.795855 -0.408361 -0.447053 146 146 144
0.840354 1.02691 4.87777 -0.628351 0.526982 -0.572245 158 157 156
0.843756 1.02089 4.86537 -0.741387 -0.501797 -0.445584 169 169 167
1.20885 0.987395 4.68564 -0.00665746 0.733726 -0.679413 217 229 237
1.21803 0.98293 4.67415 -0.146145 0.735458 -0.661622 173 181 187
1.22055 0.982634 4.67407 0.110503 0.459545 -0.881253 140 147 152
1.22945 0.984219 4.67103 0.160901 -0.133325 -0.977924 33 35 36
1.23274 0.980518 4.66451 -0.518835 -0.158281 -0.840094 6 7 6
1.23888 0.978413 4.66044 -0.800006 -0.458038 -0.387545 9 9 7
1.24551 0.974533 4.64819 -0.853635 -0.310885 -0.41792 10 10 9
-0.780488 0.75186 3.57281 0.289737 0.733343 -0.615029 42 41 37
-0.77407 0.754615 3.58456 0.287042 0.728061 -0.622522 42 41 36
-0.774974 0.757454 3.58646 0.362007 0.690824 -0.62587 49 47 42
-0.774427 0.754702 3.58649 0.355409 0.492578 -0.794388 42 41 36
-0.75841 0.75739 3.60011 0.796387 -0.41183 -0.442904 59 52 42
-0.755522 0.757297 3.59889 0.463321 -0.804184 -0.372319 63 54 45
-0.752144 0.756574 3.59805 0.689321 -0.683484 -0.240178 69 59 50
-0.616662 0.730047 3.46539 0.0881108 0.0248662 -0.9958 73 55 38
-0.609558 0.73061 3.46526 0.33462 0.33849 -0.879462 110 93 76
-0.605166 0.732743 3.46697 0.564826 0.0464086 -0.823904 195 181 162
-0.600001 0.731079 3.46873 0.381203 -0.535534 -0.753583 204 189 171
-0.59505 0.73219 3.4683 0.732567 -0.201737 -0.650114 154 138 118
-0.583378 0.732059 3.47942 0.709388 -0.130935 -0.69255 110 91 71
-0.571481 0.734217 3.48152 0.863781 -0.411135 -0.291291 97 78 57
-0.570119 0.735091 3.47838 0.772165 -0.574735 -0.271 96 76 55
-0.566189 0.734932 3.47776 0.549807 -0.674821 -0.49227 112 92 70
-0.565495 0.733001 3.48119 -0.102713 -0.597814 -0.795027 123 104 81
-0.55932 0.735216 3.47762 -0.127863 -0.622903 -0.771779 134 114 92
-0.556603 0.734868 3.47859 0.12358 -0.890602 -0.43767 123 100 78
-0.54771 0.733194 3.48147 0.0573036 -0.901602 -0.428753 78 55 33
-0.535884 0.735473 3.49282 0.746424 -0.133567 -0.651929 96 71 48
-0.453933 0.717524 3.3986 0.137164 0.743656 -0.65434 135 105 81
-0.447442 0.719341 3.40536 0.692602 0.491487 -0.527961 149 118 92
-0.384931 0.740605 3.49889 0.790444 -0.464664 -0.399106 191 156 122
-0.373708 0.739996 3.51521 0.138957 -0.760275 -0.634565 195 158 125
-0.366995 0.742389 3.50972 0.138723 -0.91255 -0.384719 211 175 139
-0.356568 0.741031 3.52028 0.159793 -0.91149 -0.379015 247 236 208
-0.227893 0.809941 3.84443 -0.0577706 -0.902286 -0.427251 205 160 120
-0.214921 0.810732 3.83892 0.645038 -0.686288 -0.336057 244 213 172
-0.20923 0.812209 3.84766 0.378522 -0.222947 -0.89834 229 196 157
-0.204207 0.814246 3.85196 0.787147 -0.312288 -0.53186 197 147 105
-0.208339 0.812987 3.84617 0.417651 -0.561106 -0.714652 216 174 132
-0.203547 0.815251 3.85126 0.711999 -0.218374 -0.667361 199 151 109
-0.198624 0.816827 3.86592 0.655436 -0.674015 -0.340745 207 155 115
-0.192105 0.815507 3.86134 0.59384 -0.651191 -0.472552 228 176 134
-0.177789 0.82456 3.90911 -0.703734 0.0818223 -0.705736 205 156 112
-0.166952 0.83041 3.92968 -0.24739 -0.846902 -0.470696 203 150 105
-0.166764 0.829151 3.92497 -0.0724767 -0.901928 -0.425761 204 151 106
-0.154765 0.823223 3.908 0.633237 -0.694759 -0.341059 224 170 123
-0.148827 0.827246 3.90744 0.138293 -0.825477 -0.547231 235 184 137
-0.144603 0.825923 3.90759 0.441976 -0.703791 -0.55618 239 193 147
-0.138394 0.823968 3.90993 0.195257 -0.687726 -0.69922 234 195 152
-0.12148 0.825951 3.9191 0.162512 -0.912556 -0.375276 252 244 210
-0.0997216 0.837134 3.97578 0.163333 -0.912582 -0.374854 244 196 154
-0.0904719 0.839877 3.97006 0.29001 -0.839906 -0.458751 251 247 220
-0.0733225 0.843372 3.99198 0.531723 -0.775893 -0.339502 248 245 216
-0.0732851 0.843777 3.99418 0.604837 -0.711309 -0.358067 248 245 215
-0.0611707 0.845314 4.00001 0.276243 -0.893523 -0.353987 253 252 230
0.00132264 0.868939 4.12201 0.848399 -0.119639 -0.515661 254 255 252
0.00184681 0.871556 4.13354 0.829176 -0.0541708 -0.556357 254 255 253
0.00204744 0.867049 4.11054 0.86216 -0.116034 -0.49317 254 255 252
0.00782828 0.874792 4.1515 0.518486 0.151243 -0.841605 253 255 252
0.0072283 0.863266 4.07884 0.861924 -0.128649 -0.490446 255 255 252
0.0119836 0.877947 4.14922 0.819578 0.141096 -0.555323 254 255 252
0.0175404 0.877817 4.16227 -0.0091065 0.743471 -0.668706 254 254 249
0.0196369 0.882182 4.16744 -0.503325 0.551852 -0.664924 254 254 250
0.0314822 0.874713 4.1556 -0.623248 -0.122483 -0.772373 254 254 251
0.118919 0.918797 4.36309 0.371168 -0.540854 -0.754793 253 254 243
0.124748 0.922291 4.37153 0.671466 -0.157925 -0.724012 253 254 243
0.132003 0.924051 4.3697 0.506332 -0.742761 -0.438104 254 254 241
0.174415 0.930603 4.41284 0.705608 -0.570708 -0.42001 252 254 233
0.185849 0.933764 4.41751 0.32686 -0.513613 -0.793325 251 247 212
0.199306 0.941294 4.4681 -0.555899 0.52114 -0.647602 238 228 179
0.847158 1.03168 4.874 -0.688188 0.0562933 -0.723346 157 156 153
0.845337 1.03255 4.87483 -0.699854 -0.110443 -0.705696 149 148 145
0.852551 1.02897 4.87354 -0.70075 -0.0740029 -0.709559 165 164 161
0.864632 1.03021 4.86264 -0.708876 -0.348182 -0.613404 150 148 145
0.873295 1.02432 4.85856 -0.812548 -0.366723 -0.453078 140 139 135
0.88261 1.02746 4.85552 -0.806388 -0.38646 -0.447646 137 135 131
1.21024 0.990308 4.69155 0.16422 0.681559 -0.713098 220 232 240
1.21608 0.988535 4.67338 0.209835 0.653644 -0.727131 205 215 223
1.21685 0.990262 4.68116 0.163742 0.680409 -0.714305 207 218 225
1.21696 0.990335 4.6815 0.154902 0.681803 -0.714948 206 217 225
1.22465 0.990089 4.67186 -0.0203027 0.46372 -0.885749 183 191 196
1.23041 0.987165 4.66877 -0.185359 -0.0467983 -0.981556 85 88 90
1.23177 0.989088 4.66693 -0.608189 0.501931 -0.614956 108 112 114
1.2446 0.983689 4.64642 -0.80349 -0.275429 -0.527772 9 9 8
-0.780498 0.757988 3.58018 0.310459 0.729882 -0.609006 40 40 36
-0.781975 0.762322 3.58688 0.387721 0.709281 -0.588722 40 39 36
-0.773878 0.760558 3.5908 0.271556 0.729797 -0.627418 64 60 55
-0.775199 0.758414 3.58467 0.539867 0.539823 -0.64586 48 46 42
-0.774033 0.761294 3.59121 0.453647 0.676636 -0.579972 64 60 55
-0.773165 0.764151 3.59526 0.475778 0.672991 -0.566321 65 61 54
-0.76619 0.762445 3.59707 0.2394 0.737245 -0.631789 62 57 48
-0.760997 0.762378 3.59917 0.42648 -0.0279968 -0.904064 70 63 52
-0.662609 0.750558 3.52789 -0.210918 -0.746315 -0.63129 80 65 49
-0.658357 0.751724 3.54611 -0.170886 -0.845003 -0.506724 73 56 40
-0.607563 0.733681 3.46287 0.773047 -0.263747 -0.57692 110 93 76
-0.603266 0.735553 3.46687 0.787791 -0.291091 -0.542818 163 146 126
-0.602265 0.736348 3.46547 0.725577 -0.507313 -0.464943 145 128 108
-0.598125 0.73676 3.46738 0.8325 -0.404054 -0.379058 137 120 99
-0.596491 0.736433 3.46483 0.737404 -0.537067 -0.409627 137 119 99
-0.591341 0.73721 3.46648 0.759882 -0.4691 -0.450027 134 116 96
-0.591267 0.735378 3.47331 0.906353 -0.181533 -0.381537 153 137 116
-0.590627 0.736007 3.46676 0.756462 -0.508463 -0.411378 144 127 106
-0.586828 0.736233 3.47827 0.375374 -0.874625 -0.306799 138 121 100
-0.581643 0.737177 3.47558 0.426239 -0.806972 -0.408799 113 94 73
-0.576476 0.735933 3.47565 -0.0833226 -0.732695 -0.675437 87 66 46
-0.574518 0.739126 3.47321 0.394852 -0.803915 -0.444762 92 72 52
-0.570868 0.739017 3.47436 0.433895 -0.84394 -0.315436 96 76 57
-0.56434 0.737079 3.46986 0.22525 -0.896889 -0.380594 114 96 74
-0.559835 0.739133 3.47491 0.418801 -0.272201 -0.866321 120 101 79
-0.55559 0.736866 3.47516 0.152076 -0.77213 -0.616999 115 93 72
-0.54788 0.737817 3.4736 0.0525566 -0.822492 -0.566343 77 55 35
-0.537788 0.734814 3.47165 0.109236 -0.907166 -0.406346 101 77 54
-0.534905 0.742702 3.48994 0.387194 -0.621753 -0.680811 102 78 54
-0.528524 0.738987 3.48885 -0.103459 -0.595358 -0.796771 105 79 56
-0.461665 0.721418 3.40169 0.138239 0.742464 -0.655467 128 97 73
-0.455399 0.722745 3.40227 0.207179 0.736304 -0.644153 145 114 89
-0.453919 0.723418 3.4052 0.143731 0.742344 -0.654421 157 129 103
-0.445956 0.72681 3.41304 -0.28061 -0.200089 -0.938735 176 147 117
-0.436389 0.724982 3.42036 0.293911 -0.892967 -0.34092 173 145 118
-0.430682 0.729976 3.43635 0.915149 -0.171236 -0.364939 250 246 221
-0.41399 0.730847 3.4409 0.907886 -0.15828 -0.38819 249 244 227
-0.411673 0.731091 3.44587 0.770622 0.156738 -0.617717 219 197 166
-0.406193 0.736158 3.4707 0.869682 -0.360044 -0.33767 254 241 210
-0.392596 0.737631 3.48232 0.292856 -0.893022 -0.341683 218 198 164
-0.387711 0.739629 3.47792 0.526881 -0.794932 -0.300799 202 171 136
-0.383152 0.737321 3.48152 0.346625 -0.879598 -0.325819 199 166 133
-0.373671 0.744688 3.50915 0.273909 -0.76223 -0.586497 199 164 130
-0.359566 0.743628 3.50594 -0.14414 -0.868516 -0.47424 207 178 141
-0.351633 0.7417 3.50343 -0.171 -0.859636 -0.48144 217 197 161
-0.227561 0.799984 3.75995 -0.540575 -0.607589 -0.581906 216 177 137
-0.220705 0.799171 3.75778 -0.433746 -0.721004 -0.540386 178 134 93
-0.210256 0.794755 3.74152 -0.624647 -0.479355 -0.61647 185 142 105
-0.192263 0.81782 3.85612 -0.063232 -0.592874 -0.802809 236 192 150
-0.186604 0.821802 3.86047 0.688481 -0.637381 -0.346035 229 194 157
-0.183954 0.821233 3.86438 -0.112345 -0.576777 -0.809139 208 160 119
-0.178498 0.82832 3.90721 -0.163575 -0.846682 -0.506332 236 189 146
-0.18008 0.823304 3.87074 0.867989 -0.103693 -0.485637 231 182 141
-0.17566 0.830331 3.90176 -0.439228 -0.444706 -0.780586 249 209 166
-0.176075 0.828218 3.90486 -0.0499581 -0.858338 -0.510646 247 204 159
-0.169081 0.832419 3.91143 -0.0392892 -0.902974 -0.427895 247 216 175
-0.154866 0.826808 3.89672 0.600343 -0.724817 -0.337977 213 159 112
-0.154866 0.826808 3.89672 0.600343 -0.724817 -0.337977 213 159 112
-0.148267 0.82554 3.89234 0.583848 -0.612728 -0.532623 231 177 130
-0.138935 0.827671 3.89696 -0.127583 -0.883716 -0.450298 244 220 183
-0.133537 0.828103 3.90145 0.63114 -0.486473 -0.604158 252 250 234
-0.127474 0.828374 3.90368 0.679415 -0.641463 -0.35626 252 253 241
-0.118522 0.830532 3.90285 -0.192926 -0.846531 -0.496149 246 230 195
-0.108835 0.847612 3.98121 -0.366304 -0.787988 -0.494871 251 239 206
-0.102653 0.843828 3.97456 -0.742202 -0.1375 -0.65592 247 217 174
-0.0902671 0.840714 3.97001 0.186315 -0.897696 -0.399286 252 250 225
-0.0820725 0.841102 3.95156 0.206745 -0.840726 -0.500435 253 255 240
-0.0820739 0.841116 3.95163 0.175987 -0.838873 -0.515092 253 255 240
-0.0805283 0.841232 3.94982 0.213869 -0.899821 -0.380239 253 255 240
-0.0640446 0.849699 3.99184 0.549297 -0.760502 -0.346281 253 253 231
-0.0594903 0.852228 4.00304 0.651442 -0.667624 -0.360419 252 255 238
-0.00159537 0.862719 4.05627 0.846036 -0.216401 -0.487231 255 255 251
0.0110889 0.883684 4.1531 0.73932 0.334341 -0.584485 254 255 253
0.0215487 0.884078 4.16975 -0.560189 0.491081 -0.667104 254 255 250
0.0308508 0.88405 4.16204 -0.569753 0.476115 -0.669848 254 255 251
0.125694 0.927207 4.37472 0.830257 -0.218881 -0.512606 254 255 246
0.851535 1.03307 4.86961 -0.820134 -0.200744 -0.535801 162 161 158
0.860402 1.03538 4.86612 0.0997824 -0.87217 -0.478919 164 162 160
0.874873 1.0326 4.85185 -0.449261 -0.591438 -0.669602 140 139 135
1.21009 0.999332 4.69972 0.163015 0.681428 -0.7135 227 240 245
1.2144 1.00161 4.70448 -0.0826833 0.743388 -0.66373 224 236 244
1.21685 0.999366 4.68983 0.163756 0.680409 -0.714302 217 229 236
1.22439 0.992571 4.67288 0.358682 0.447082 -0.81943 193 201 207
1.22726 0.992631 4.6742 -0.183128 0.650547 -0.737057 181 189 194
1.23052 0.989755 4.66378 -0.0743063 -0.221069 -0.972423 139 144 146
1.23846 0.988386 4.65341 -0.858736 -0.115016 -0.499343 6 7 7
1.2402 0.989993 4.65061 -0.813695 -0.418126 -0.40382 10 11 11
1.24484 0.986034 4.62313 -0.84624 -0.166037 -0.50627 8 9 6
1.25466 0.983947 4.61547 -0.849347 -0.359971 -0.386046 9 10 8
-0.78158 0.765084 3.59161 0.288917 0.733273 -0.615498 41 41 36
-0.774123 0.766979 3.59915 0.270465 0.735121 -0.621648 60 55 47
-0.665122 0.752133 3.53036 -0.385789 -0.693625 -0.608318 80 65 49
-0.662904 0.752175 3.52714 0.272147 -0.895134 -0.353089 82 67 51
-0.65433 0.752622 3.51833 0.209576 -0.809926 -0.547812 74 58 42
-0.653384 0.75185 3.5297 0.279175 -0.899905 -0.33501 72 56 40
-0.648333 0.750618 3.52657 -0.0870117 -0.735877 -0.671501 70 53 37
-0.638791 0.749981 3.50935 -0.45255 -0.631259 -0.62985 68 52 36
-0.638975 0.749227 3.51673 -0.198531 -0.832609 -0.517057 71 55 39
-0.614482 0.739221 3.46912 -0.438631 -0.517435 -0.734755 76 58 42
-0.610513 0.738934 3.46346 0.616698 0.246136 -0.74773 79 61 44
-0.609768 0.736476 3.4578 0.00924414 -0.86421 -0.503046 80 62 46
-0.60097 0.737676 3.46504 -0.303795 -0.6622 -0.684981 128 111 91
-0.598101 0.738955 3.46676 0.721988 -0.557967 -0.409153 120 102 82
-0.593179 0.740034 3.46689 0.762293 -0.255046 -0.594862 108 89 69
-0.557229 0.740096 3.47356 -0.025272 -0.662046 -0.749037 117 96 75
-0.55679 0.742499 3.47317 -0.358081 -0.701993 -0.615617 114 93 73
-0.556337 0.74313 3.47213 -0.397165 -0.67242 -0.624589 113 92 72
-0.555975 0.741178 3.47106 -0.0981341 -0.793455 -0.600665 114 92 73
-0.523809 0.732731 3.421 0.827353 0.322618 -0.459788 98 74 52
-0.461444 0.726987 3.40677 0.214565 0.504181 -0.836519 154 124 99
-0.457365 0.729257 3.41046 0.175123 0.643373 -0.745254 182 156 130
-0.451805 0.730333 3.4151 -0.062953 0.314552 -0.947151 254 250 233
-0.438011 0.730061 3.41315 0.692445 -0.508816 -0.511495 189 167 136
-0.436457 0.729344 3.41388 0.303049 -0.815032 -0.493847 206 186 157
-0.432035 0.731042 3.41529 0.341461 -0.740073 -0.579393 252 246 225
-0.430102 0.729761 3.42181 0.368795 -0.864885 -0.340536 246 236 212
-0.424503 0.736279 3.43757 0.643854 -0.674324 -0.36158 214 189 156
-0.418703 0.736016 3.43852 0.490744 -0.720881 -0.489387 237 227 205
-0.410727 0.735319 3.44843 0.916422 -0.0362091 -0.398572 225 199 165
-0.3984 0.73824 3.4484 0.758764 -0.572423 -0.310822 245 221 187
-0.397837 0.738371 3.4539 0.850937 -0.408534 -0.330161 247 225 191
-0.392404 0.741385 3.47239 0.359428 -0.87637 -0.320604 253 249 219
-0.391628 0.741185 3.4746 0.0729203 -0.911542 -0.40469 253 249 220
-0.384519 0.743653 3.48401 0.347091 -0.879187 -0.326434 193 156 121
-0.376192 0.745419 3.49303 -0.489118 -0.620805 -0.61267 194 159 125
-0.367777 0.744282 3.4924 0.146715 -0.830222 -0.537779 197 162 128
-0.367194 0.744285 3.48746 -0.115127 -0.642593 -0.757509 199 162 129
-0.359012 0.746771 3.49303 0.257834 -0.816895 -0.51595 215 180 144
-0.351917 0.746588 3.49878 0.269382 -0.835708 -0.478565 215 189 152
-0.348231 0.746773 3.49153 0.0693576 -0.807198 -0.586193 237 220 187
-0.340593 0.746144 3.49369 -0.438561 -0.284776 -0.852389 249 233 199
-0.332916 0.743252 3.48729 -0.671567 -0.227223 -0.705243 247 234 207
-0.333296 0.747144 3.487 -0.691699 -0.145863 -0.707303 254 252 237
-0.306259 0.748663 3.49405 -0.688108 -0.21779 -0.692152 254 253 239
-0.226505 0.800381 3.74812 -0.507895 -0.647604 -0.568025 238 211 172
-0.218832 0.801419 3.74093 -0.505 -0.640454 -0.578614 241 226 192
-0.214592 0.800012 3.74742 -0.0332419 -0.540099 -0.840944 204 161 122
-0.196144 0.825384 3.85353 0.58776 -0.739338 -0.328508 250 230 194
-0.192546 0.825243 3.8526 -0.352715 -0.776263 -0.522502 253 245 216
-0.182929 0.823176 3.86329 -0.0932093 -0.896945 -0.432205 229 186 145
-0.178115 0.833537 3.90113 0.0937381 -0.879102 -0.467326 246 202 158
-0.168947 0.832241 3.90677 -0.171724 -0.873373 -0.455775 250 224 184
-0.166581 0.832935 3.91013 0.0176578 -0.91282 -0.407979 249 217 175
-0.158778 0.831439 3.89175 -0.0393485 -0.899819 -0.434486 238 194 148
-0.155865 0.831414 3.88605 0.121693 -0.917198 -0.379392 239 196 152
-0.155924 0.831733 3.88754 0.0829667 -0.917835 -0.388196 239 197 152
-0.148227 0.829021 3.88155 0.1774 -0.800809 -0.572044 241 198 153
-0.148872 0.82896 3.87944 0.61486 -0.562573 -0.552683 240 197 151
-0.146338 0.827295 3.88013 0.588842 -0.576759 -0.566229 237 190 144
-0.143441 0.828346 3.8812 0.541449 -0.462332 -0.702198 244 213 174
-0.138492 0.830839 3.88716 0.75928 -0.256192 -0.598213 253 251 235
-0.133518 0.833346 3.89297 0.765666 -0.255414 -0.590355 252 255 244
-0.127757 0.835647 3.90318 -0.0948952 0.0491612 -0.994273 254 255 239
-0.130859 0.83375 3.90142 0.819468 -0.414097 -0.396228 253 255 244
-0.125026 0.831535 3.89966 0.509521 -0.673496 -0.535529 250 249 219
-0.12024 0.834813 3.8987 0.546464 -0.597427 -0.586906 254 254 240
-0.112174 0.835836 3.90737 0.683177 -0.48786 -0.54338 251 255 244
-0.0902674 0.842633 3.95246 0.0959272 -0.917803 -0.385272 253 252 232
-0.08002 0.843644 3.93745 -0.136881 -0.890504 -0.433897 254 253 236
-0.0724024 0.843197 3.94848 0.587064 -0.73115 -0.347528 253 251 225
-0.0666314 0.850401 3.98718 0.716451 -0.588525 -0.374615 253 254 233
-0.0666711 0.851007 3.99004 0.721069 -0.581999 -0.375949 253 254 233
-0.0666711 0.851007 3.99004 0.721069 -0.581999 -0.375949 253 254 233
-0.0666641 0.850916 3.98961 0.751077 -0.535322 -0.386411 253 254 233
-0.05999 0.851616 3.99286 0.642594 -0.676502 -0.359746 252 255 237
-0.0341881 0.858234 4.01205 0.819732 0.179073 -0.544034 253 254 243
0.00604893 0.879031 4.12622 0.820794 0.163331 -0.547376 255 255 252
0.00360376 0.865344 4.05812 0.798858 -0.145517 -0.583653 255 255 252
0.117689 0.935707 4.36827 0.0141076 0.69189 -0.721866 245 241 209
0.122786 0.936643 4.38032 0.618996 0.469987 -0.629251 252 254 241
0.151973 0.941705 4.3975 0.498551 -0.770849 -0.396533 254 255 244
0.166514 0.938546 4.39107 -0.282978 -0.853875 -0.436831 249 249 230
0.84522 1.04378 4.88284 -0.826185 -0.309042 -0.471075 130 127 124
0.862282 1.0401 4.85714 -0.219492 -0.872326 -0.436889 160 159 154
0.864366 1.03876 4.86752 -0.720487 -0.33138 -0.609168 164 162 159
0.868665 1.03953 4.85667 -0.579073 -0.640389 -0.504556 163 163 159
0.876424 1.03532 4.84004 -0.790854 -0.400863 -0.462449 142 141 138
0.881772 1.0334 4.84481 -0.47411 -0.601731 -0.642759 138 137 133
0.887749 1.03001 4.81693 -0.775341 -0.461154 -0.431489 136 136 131
1.22586 1.00296 4.68603 0.232639 0.61602 -0.752595 202 213 219
1.23325 0.995362 4.65672 -0.337089 0.0434569 -0.940469 165 170 173
1.23627 0.995635 4.65677 -0.528008 0.126938 -0.839699 151 155 156
1.23916 0.995266 4.63987 -0.821549 -0.354744 -0.446333 120 123 124
1.23823 0.994105 4.64985 -0.872279 -0.0989965 -0.478884 114 116 117
1.2417 0.994007 4.64128 -0.902095 -0.0501674 -0.428612 58 60 60
1.2434 0.992517 4.62528 -0.768601 -0.198948 -0.608007 34 36 34
1.24645 0.986563 4.61906 -0.824194 -0.257108 -0.504579 7 9 5
1.24697 0.990248 4.61579 -0.738956 -0.187907 -0.64702 6 8 5
-0.783509 0.773165 3.60783 0.231977 -0.739659 -0.631736 45 41 35
-0.675507 0.761768 3.54138 -0.496526 -0.568727 -0.655753 78 63 47
-0.662806 0.755404 3.52211 -0.0877321 -0.875414 -0.475346 82 67 51
-0.661462 0.755841 3.51353 0.539196 -0.80407 -0.250476 81 66 50
-0.654827 0.753329 3.51764 -0.0261703 -0.744159 -0.66749 75 58 42
-0.650925 0.754592 3.50403 -0.076518 -0.88152 -0.465905 71 55 39
-0.647043 0.75429 3.51047 0.149353 -0.913075 -0.379457 68 51 35
-0.646544 0.753765 3.50988 0.0926727 -0.907359 -0.410013 67 51 35
-0.629769 0.748121 3.4905 -0.586213 -0.401768 -0.703518 69 52 36
-0.621229 0.747388 3.48384 -0.582082 -0.414915 -0.699304 69 51 35
-0.619786 0.746846 3.481 -0.546547 -0.491556 -0.677982 69 52 35
-0.599839 0.74287 3.46732 0.807046 -0.436959 -0.39717 97 78 60
-0.598323 0.743618 3.46961 0.877628 -0.384676 -0.285996 96 77 58
-0.58973 0.746744 3.46949 0.89121 -0.341623 -0.298392 98 79 59
-0.586562 0.743883 3.47339 0.844934 -0.437895 -0.307141 105 87 66
-0.581904 0.745312 3.4749 0.109715 -0.0656949 -0.99179 111 93 72
-0.574924 0.743805 3.46816 -0.249644 -0.806211 -0.536378 118 100 78
-0.576364 0.745811 3.47196 -0.618045 -0.329522 -0.713747 121 103 82
-0.54805 0.742874 3.46768 0.822933 -0.492844 -0.282642 77 55 36
-0.520221 0.735617 3.41562 0.826349 0.323138 -0.461226 98 73 51
-0.459444 0.733007 3.41295 0.0349822 0.466371 -0.883897 201 175 149
-0.446109 0.734684 3.41271 -0.505228 -0.0125607 -0.862894 186 161 130
-0.440583 0.734614 3.41161 0.106992 -0.268285 -0.95738 200 183 157
-0.434908 0.734318 3.41056 0.668187 -0.132552 -0.73209 255 252 232
-0.427906 0.734834 3.41907 0.729647 -0.613632 -0.30178 227 205 175
-0.424202 0.738796 3.43594 0.259877 -0.87561 -0.407151 215 187 153
-0.424202 0.738796 3.43594 0.259877 -0.87561 -0.407151 215 187 153
-0.424202 0.738796 3.43594 0.259877 -0.87561 -0.407151 215 187 153
-0.420131 0.738416 3.43564 0.380042 -0.861414 -0.336949 226 207 179
-0.412217 0.740042 3.44328 0.834673 -0.317637 -0.449919 236 219 191
-0.411062 0.741435 3.44082 0.635029 -0.4969 -0.591463 236 215 185
-0.405996 0.741288 3.44234 -0.214654 -0.835268 -0.506213 248 222 187
-0.391443 0.745132 3.46335 0.077827 -0.909967 -0.407313 254 249 220
-0.391128 0.745247 3.46248 0.510743 -0.778034 -0.365793 254 250 220
-0.384536 0.747403 3.47437 0.345692 -0.877414 -0.332628 197 159 125
-0.364782 0.749277 3.48172 0.641837 -0.707647 -0.295433 230 196 162
-0.351472 0.750225 3.48477 -0.0178543 -0.901705 -0.431982 214 184 148
-0.342136 0.747448 3.4879 -0.0971867 -0.871679 -0.480345 252 241 211
-0.306666 0.749097 3.49574 -0.567079 -0.467233 -0.678318 254 253 239
-0.293686 0.766348 3.56906 -0.114913 -0.883493 -0.454132 254 254 243
-0.284724 0.764922 3.56305 0.354219 -0.867871 -0.348323 254 254 246
-0.28054 0.768604 3.57379 0.852403 -0.157367 -0.498644 250 245 224
-0.276085 0.770911 3.57846 0.140477 -0.883447 -0.446976 224 189 148
-0.182306 0.825339 3.83974 -0.0916663 -0.897297 -0.431804 248 228 188
-0.182278 0.825237 3.83927 -0.0868617 -0.897336 -0.432715 248 228 189
-0.182254 0.825377 3.83993 -0.0999496 -0.895479 -0.433738 248 227 188
-0.15388 0.830939 3.86738 0.816987 -0.426333 -0.388295 250 227 186
-0.148543 0.833642 3.87446 0.817113 -0.407626 -0.407637 253 246 211
-0.148113 0.833264 3.87168 0.504213 -0.800517 -0.323947 253 247 211
-0.141003 0.835612 3.88133 0.793813 -0.32785 -0.512227 252 245 219
-0.135618 0.833583 3.88895 0.83202 -0.131307 -0.538982 253 254 241
-0.130497 0.839038 3.89472 0.759549 -0.283092 -0.585615 253 254 239
-0.124263 0.837771 3.89725 -0.400588 -0.761905 -0.50895 254 255 243
-0.114482 0.839324 3.89557 0.596725 -0.72756 -0.338491 254 255 243
-0.107823 0.836337 3.89758 0.742504 0.0453186 -0.668306 252 255 242
-0.103654 0.846153 3.938 0.834946 0.160835 -0.526306 253 254 236
-0.0901669 0.846195 3.93729 0.212993 -0.772791 -0.597853 253 254 238
-0.0879505 0.847037 3.93619 0.466045 -0.582722 -0.66576 252 254 238
-0.0831769 0.843855 3.93657 -0.21226 -0.851554 -0.479376 254 254 239
-0.0736384 0.846153 3.92738 0.801149 -0.4325 -0.413648 253 253 225
-0.0639647 0.850109 3.94908 0.588451 -0.730251 -0.347071 253 254 233
-0.0578495 0.849747 3.95453 0.686567 -0.626909 -0.368254 253 255 239
-0.0483045 0.856058 3.99324 0.619339 -0.700376 -0.354814 253 254 243
-0.0399398 0.859306 3.99058 0.820437 0.176942 -0.543668 252 254 245
-0.0346784 0.862461 4.00458 -0.381544 -0.770985 -0.509908 252 253 234
-0.0304989 0.864497 4.02016 0.851441 0.0201232 -0.524064 253 254 236
-0.0293854 0.865305 4.02485 0.86834 -0.0601773 -0.492306 253 254 239
-0.0153031 0.875951 4.0809 -0.291472 -0.837933 -0.461424 255 255 250
-0.0152789 0.875908 4.08118 -0.348697 -0.768638 -0.53629 255 255 250
0.106331 0.938029 4.35784 0.0411992 0.420211 -0.906491 252 254 237
0.121952 0.942031 4.37745 0.669728 0.410769 -0.618655 253 254 244
0.128764 0.939846 4.38448 0.670502 0.00415963 -0.741896 253 255 243
0.134487 0.947663 4.40657 0.773548 0.0515643 -0.631636 254 255 243
0.142545 0.943154 4.3979 0.43549 -0.740696 -0.511584 254 255 243
0.144983 0.941384 4.3814 0.545059 -0.750455 -0.373803 255 255 244
0.156035 0.944674 4.38905 -0.28975 -0.850988 -0.438022 254 255 245
0.161609 0.946543 4.39308 -0.0877482 -0.785723 -0.612324 253 255 246
