ply
format ascii 1.0
element vertex 710
property float x
property float y
property float z
property float nx
property float ny
property float nz
property uchar diffuse_red
property uchar diffuse_green
property uchar diffuse_blue
end_header
0.0552158 0.919686 2.082 0.370654 -0.103174 -0.923023 80 164 92
0.0594403 0.920334 2.08491 -0.0618422 -0.696796 -0.714599 97 190 112
0.0676366 0.920101 2.08493 0.101655 -0.85368 -0.51078 87 169 100
0.07644 0.919454 2.08261 0.0336003 -0.984464 -0.172339 87 169 101
0.0873928 0.918175 2.07732 -0.0742788 -0.987112 -0.141751 84 165 101
0.0940545 0.913939 2.07501 0.368554 -0.159846 -0.915761 86 168 105
0.0957076 0.915614 2.07697 0.102031 -0.532181 -0.84046 87 171 107
0.0982022 0.914803 2.07829 0.0898981 -0.498608 -0.862153 113 212 138
0.110611 0.914149 2.0741 0.83735 -0.010332 -0.54657 106 201 138
-0.155324 0.97035 2.16288 -0.778333 -0.406496 -0.478496 98 187 131
-0.155887 0.970309 2.16108 -0.776522 -0.371603 -0.508847 97 186 131
-0.152264 0.96914 2.15911 -0.49115 -0.159979 -0.856258 96 183 127
-0.153136 0.967105 2.1632 -0.750253 -0.24998 -0.61207 99 187 132
-0.148484 0.967614 2.15613 -0.386451 -0.125423 -0.913742 95 180 125
-0.142897 0.963098 2.15303 -0.51156 0.108006 -0.852433 84 169 114
0.0484899 0.921869 2.08136 0.157367 -0.141695 -0.977322 89 172 102
0.0531727 0.924249 2.08183 -0.0675029 -0.0849657 -0.994095 84 166 97
0.0827004 0.918889 2.07659 0.417781 -0.334602 -0.84469 79 161 95
0.0938663 0.918515 2.07405 0.267948 -0.220915 -0.937764 78 161 97
0.0980723 0.918989 2.07613 0.218873 -0.316524 -0.922988 86 170 107
0.110606 0.919303 2.07415 0.837234 -0.0113398 -0.546727 106 200 137
0.11103 0.923203 2.07911 0.801555 0.0120611 -0.597799 116 222 152
-0.154686 0.974147 2.16004 -0.569994 -0.131605 -0.811041 94 182 126
-0.149684 0.967611 2.15508 0.0841073 -0.320037 -0.943664 95 181 125
0.0961927 0.922612 2.07454 0.308432 -0.185401 -0.933004 80 164 100
0.100443 0.923074 2.0764 0.0759198 -0.138895 -0.987393 88 173 110
0.103771 0.925915 2.07708 -0.0334707 -0.0208778 -0.999222 92 177 115
0.111106 0.924036 2.07369 0.744019 0.0234501 -0.667747 105 196 134
-0.156145 0.979235 2.1599 -0.48072 -0.0214778 -0.876611 92 180 125
-0.149266 0.977042 2.15592 -0.365998 0.0819893 -0.926997 68 157 100
-0.150843 0.973474 2.15672 -0.59537 -0.0971139 -0.797561 89 176 120
-0.146739 0.97185 2.1543 -0.340268 0.0983343 -0.935173 95 179 124
-0.140723 0.97237 2.15306 -0.434683 -0.11468 -0.893252 98 179 123
0.0984722 0.927068 2.07585 0.49004 -0.0100518 -0.871642 100 196 123
0.100753 0.931465 2.07693 0.270777 0.0925381 -0.958184 108 205 132
0.108235 0.928891 2.07394 -0.0331773 -0.0213565 -0.999221 112 212 140
0.112338 0.930216 2.07601 0.689985 0.0382872 -0.722811 113 210 146
-0.151873 0.982199 2.15743 -0.356191 0.0491027 -0.933122 60 150 94
-0.143629 0.97713 2.15403 -0.354728 0.0635834 -0.932805 89 173 116
-0.143576 0.977207 2.15398 -0.368547 0.0420336 -0.928658 89 172 116
-0.13808 0.976522 2.15093 -0.528113 -0.0301473 -0.848639 91 174 117
-0.133436 0.973341 2.14736 -0.0718677 -0.0619715 -0.995487 90 170 115
-0.127515 0.971689 2.14397 -0.0891928 -0.37643 -0.922142 97 180 122
-0.122752 0.971889 2.14387 -0.258823 -0.33004 -0.907791 101 182 125
-0.117953 0.970657 2.14376 -0.196511 -0.502188 -0.842135 98 179 121
-0.109687 0.970326 2.13664 -0.0852101 -0.105555 -0.990756 94 168 113
-0.107783 0.966261 2.13545 -0.180694 0.0600339 -0.981705 86 161 105
-0.102539 0.966323 2.1341 -0.267248 0.0457557 -0.962541 83 159 102
-0.0978855 0.966092 2.13152 -0.40296 0.0469546 -0.914012 77 153 96
-0.089687 0.964823 2.12879 -0.00211257 -0.221174 -0.975232 93 179 115
-0.0844832 0.964582 2.1263 -0.437775 -0.105422 -0.892883 81 156 98
-0.060814 0.958278 2.11706 -0.272631 -0.0843711 -0.958412 81 152 96
0.0962323 0.931697 2.07482 0.424325 0.114258 -0.898272 97 193 119
0.103772 0.935167 2.07686 -0.00754395 0.0334878 -0.999411 93 177 114
0.110698 0.933844 2.07417 0.814719 0.0168347 -0.579612 106 196 134
-0.154374 0.98736 2.15891 -0.388596 0.086788 -0.917312 83 171 115
-0.157671 0.985328 2.16194 -0.701477 0.0242476 -0.71228 97 183 128
-0.15765 0.989019 2.16265 -0.683744 0.0641474 -0.726897 96 181 126
-0.146293 0.982362 2.15573 -0.258343 0.141269 -0.955668 57 146 89
-0.145855 0.982597 2.15581 -0.243861 0.103505 -0.964271 59 156 95
-0.145924 0.982666 2.15593 -0.208746 0.119533 -0.970637 59 156 95
-0.140763 0.98205 2.1531 -0.366913 0.124121 -0.921938 65 154 95
-0.134646 0.980624 2.14825 -0.498663 -0.150569 -0.853618 59 145 87
-0.125442 0.976266 2.14342 -0.338213 -0.199287 -0.919726 94 176 118
-0.124907 0.974647 2.14315 -0.272727 -0.164784 -0.947875 98 180 121
-0.120581 0.975275 2.14281 0.0468092 -0.271294 -0.961358 108 192 132
-0.112291 0.971402 2.13727 -0.114899 -0.0132527 -0.993289 97 170 115
-0.104781 0.971856 2.13608 -0.443135 -0.120679 -0.888295 88 164 107
-0.0998323 0.971439 2.13331 -0.414844 -0.0978155 -0.90462 73 152 94
-0.0921348 0.968986 2.12879 -0.286546 -0.0208597 -0.957839 81 164 103
-0.0872305 0.969641 2.12791 -0.278515 -0.170216 -0.945228 85 159 102
-0.0798362 0.965352 2.12533 -0.188601 -0.0393581 -0.981265 90 170 109
-0.0735231 0.962981 2.12082 -0.373855 -0.00188863 -0.927485 85 157 100
-0.0685027 0.962976 2.11879 -0.373808 -0.00190097 -0.927504 94 171 110
-0.063413 0.963167 2.11828 -0.163721 -0.125732 -0.978462 91 169 107
-0.0578789 0.962759 2.11597 -0.276294 0.0925331 -0.956608 86 164 103
-0.0291028 0.957686 2.10685 -0.059734 -0.152468 -0.986502 85 163 99
-0.025085 0.956955 2.1046 -0.185204 0.0429354 -0.981762 82 160 96
0.0946842 0.938487 2.07294 0.0989134 -0.179212 -0.978825 97 192 117
0.0984973 0.935694 2.07522 0.512605 -0.0199611 -0.858393 105 200 127
0.106888 0.939634 2.07643 0.338706 -0.0863587 -0.936921 112 210 139
0.110438 0.937936 2.07972 0.825576 0.0152322 -0.564086 114 220 150
-0.160367 0.994425 2.16565 -0.676671 -0.0412295 -0.73513 98 185 130
-0.159976 0.994521 2.16443 -0.671832 -0.0286912 -0.740148 97 184 128
-0.157122 0.991162 2.16215 -0.6803 0.050075 -0.731222 93 179 124
-0.156907 0.992721 2.16059 -0.388567 0.0758583 -0.918292 90 176 120
-0.151965 0.992231 2.1578 -0.486456 0.0606506 -0.871598 80 166 110
-0.148907 0.987056 2.15632 -0.148121 0.00652161 -0.988948 64 161 100
-0.149168 0.987121 2.15628 -0.165114 -0.0162683 -0.98614 65 161 101
-0.143449 0.986953 2.15476 -0.305151 0.0876831 -0.948259 56 145 88
-0.144012 0.986455 2.15406 -0.301291 -0.00516239 -0.953518 57 146 89
-0.137627 0.98726 2.15241 -0.53491 0.257957 -0.804568 54 141 84
-0.132486 0.985097 2.14556 -0.461474 -0.334077 -0.821848 68 156 96
-0.129774 0.980618 2.14539 -0.519011 -0.119733 -0.84634 70 153 96
-0.123418 0.979914 2.14368 -0.295711 -0.310996 -0.903237 97 178 120
-0.108105 0.978446 2.13852 -0.494696 -0.0712558 -0.86614 98 171 116
-0.102496 0.976211 2.13433 -0.381732 -0.103364 -0.918475 80 164 103
-0.094742 0.973944 2.13017 -0.409203 -0.00543717 -0.912427 68 147 90
-0.0897299 0.974128 2.12844 -0.377466 -0.0147775 -0.925906 79 154 96
-0.0715042 0.967675 2.11999 -0.701316 0.0861455 -0.707627 92 162 104
-0.0661042 0.967794 2.11843 -0.300639 0.050379 -0.952406 100 175 114
-0.0605042 0.967781 2.11743 -0.301568 0.109456 -0.947141 99 174 113
-0.055103 0.966447 2.11346 -0.00832075 -0.256568 -0.96649 98 172 112
-0.0446365 0.963198 2.11458 -0.500465 -0.387385 -0.774253 91 175 109
-0.0484966 0.963939 2.11471 -0.500985 -0.449927 -0.73931 92 175 110
-0.0422107 0.966892 2.11356 -0.498627 -0.401778 -0.76808 93 169 108
-0.0414027 0.964643 2.11415 -0.358224 -0.789906 -0.497719 87 165 104
-0.0350564 0.96268 2.11059 -0.485352 -0.294651 -0.823173 88 165 103
-0.0313762 0.96213 2.10717 -0.279087 -0.234457 -0.931204 90 166 104
-0.0269102 0.961865 2.10537 -0.233187 -0.233336 -0.944022 83 160 96
0.0992548 0.940373 2.0743 0.707125 -0.22163 -0.671457 100 196 123
0.102392 0.944241 2.07994 0.375574 -0.0178394 -0.926621 111 208 137
0.106837 0.943994 2.081 0.284519 0.0120247 -0.958595 114 215 144
-0.159887 0.999464 2.16558 -0.531006 -0.0956506 -0.841953 95 182 127
-0.156576 0.996989 2.16222 -0.71418 -0.0567903 -0.697654 89 174 119
-0.153461 0.993634 2.15864 -0.445565 0.0763964 -0.891984 80 166 110
-0.147154 0.991062 2.15463 -0.329776 -0.152656 -0.931635 81 172 113
-0.146515 0.991445 2.15533 -0.378047 -0.0164686 -0.92564 80 165 109
-0.135503 0.98936 2.14552 -0.491821 -0.319532 -0.809945 92 168 116
-0.128025 0.985446 2.14362 -0.502875 -0.394682 -0.768988 79 159 103
-0.125876 0.984648 2.14304 -0.277355 -0.212863 -0.93689 92 174 115
-0.121269 0.984719 2.14179 -0.359797 -0.124719 -0.924657 102 181 123
-0.107991 0.984106 2.1383 -0.649447 0.0564476 -0.758309 98 171 115
-0.105106 0.981097 2.1354 -0.429682 -0.0266919 -0.902586 89 164 107
-0.104117 0.980963 2.13507 -0.559918 0.00548938 -0.82853 84 159 102
-0.0975041 0.97859 2.13099 -0.408545 -0.116566 -0.905264 67 147 88
-0.092342 0.978955 2.12934 -0.476503 -0.0511547 -0.877683 71 147 89
-0.0637832 0.975678 2.12197 0.108291 -0.510468 -0.853051 95 164 105
-0.0600293 0.970012 2.11433 -0.295132 -0.389141 -0.87262 111 189 124
-0.0600293 0.970012 2.11433 -0.295132 -0.389141 -0.87262 103 176 114
-0.0590614 0.973442 2.11849 -0.384456 -0.580175 -0.718046 111 189 124
-0.0545174 0.969935 2.11247 0.00625253 -0.262824 -0.964824 102 175 115
-0.0509895 0.967297 2.11222 -0.498253 -0.392181 -0.773265 100 173 112
-0.0456622 0.970156 2.11505 0.101129 -0.487551 -0.867218 99 173 112
-0.0465199 0.967176 2.11301 0.19441 -0.326741 -0.924903 103 184 119
-0.0378985 0.966844 2.11071 -0.476704 -0.302128 -0.825513 96 171 110
-0.0336099 0.966765 2.10808 -0.40362 -0.154071 -0.901861 97 172 111
-0.0294683 0.966318 2.10537 -0.208775 -0.152336 -0.966026 94 169 107
-0.0247768 0.966017 2.10386 -0.15678 -0.245022 -0.956757 86 163 99
-0.0224056 0.961613 2.10383 -0.190923 -0.166876 -0.967316 77 156 91
-0.0179285 0.961254 2.10245 -0.197067 -0.27739 -0.940329 78 156 90
-0.0124413 0.962041 2.10222 -0.495371 -0.301208 -0.814789 82 159 93
-0.00637599 0.962295 2.09775 -0.775446 -0.0202016 -0.63109 80 148 88
0.0959517 0.944838 2.07355 0.124216 0.0880004 -0.988345 99 194 120
0.0995608 0.946017 2.07616 0.218977 0.122025 -0.96807 102 198 126
0.10107 0.948003 2.07831 0.0409448 0.11451 -0.992578 107 205 133
0.104984 0.948343 2.0806 0.00828928 0.0579422 -0.998286 112 213 141
-0.161984 1.00428 2.16495 -0.473701 -0.025928 -0.880304 94 181 126
-0.15654 1.00262 2.16248 -0.74341 -0.0591848 -0.666212 87 172 117
-0.150891 0.998804 2.15733 -0.574062 -0.0462974 -0.817502 77 161 105
-0.153432 1 2.159 -0.713442 -0.088733 -0.695073 76 162 105
-0.144497 0.995994 2.15394 -0.408589 -0.108512 -0.906245 88 166 112
-0.143692 0.996614 2.1546 -0.0943222 -0.0305896 -0.995072 88 167 113
-0.138179 0.99656 2.15399 -0.105238 -0.0130422 -0.994362 96 171 118
-0.131336 0.99082 2.14556 -0.695719 0.0214559 -0.717994 93 169 116
-0.123958 0.98928 2.14248 -0.653834 -0.13956 -0.743656 95 170 115
-0.107688 0.989838 2.13817 -0.673125 0.0628437 -0.736854 99 170 114
-0.104096 0.987331 2.13505 -0.540916 0.0809536 -0.837172 87 162 105
-0.0999845 0.983711 2.13249 -0.39816 0.0427203 -0.916321 73 151 93
-0.0421948 0.972316 2.11301 -0.493575 -0.562919 -0.662953 107 187 123
-0.0321692 0.970483 2.10559 0.254182 -0.0286437 -0.966732 106 187 122
-0.0271918 0.970613 2.10406 -0.126105 -0.10554 -0.986387 96 172 108
-0.0204636 0.965363 2.10209 -0.246686 -0.276179 -0.928909 83 160 95
-0.0159657 0.965199 2.10061 -0.276688 -0.246996 -0.928675 84 161 94
-0.00976166 0.966745 2.10148 -0.637017 0.202057 -0.743897 82 151 89
0.0902698 0.951375 2.07636 0.136213 0.245809 -0.9597 99 193 119
0.0976638 0.949763 2.07476 0.178722 0.225691 -0.957665 101 197 124
0.105676 0.951166 2.07604 0.0328143 0.101187 -0.994326 109 209 137
-0.163221 1.01066 2.16716 -0.686516 0.0561331 -0.724944 95 183 128
-0.159839 1.00922 2.16311 -0.413235 0.0267009 -0.910233 93 177 123
-0.0757364 0.982284 2.12099 -0.17188 0.0412223 -0.984255 102 185 120
-0.0662456 0.978875 2.11748 -0.490419 -0.547406 -0.678112 100 176 113
-0.0592281 0.980435 2.11724 -0.495548 -0.520741 -0.69517 101 177 115
-0.0536082 0.978803 2.1164 -0.501058 -0.457518 -0.734587 102 176 115
-0.0509211 0.980419 2.11555 -0.502154 -0.458544 -0.733197 102 176 115
-0.0199953 0.968954 2.10062 -0.220007 -0.281104 -0.934119 93 169 103
-0.0227386 0.969973 2.102 -0.262993 -0.176723 -0.948474 94 170 104
-0.0186213 0.969188 2.10008 -0.277691 -0.243159 -0.929388 94 170 103
-0.0152718 0.967942 2.09704 -0.257274 -0.725401 -0.638439 94 170 103
-0.0113042 0.968721 2.09458 0.231828 -0.682111 -0.693527 103 184 112
-0.00120791 0.967299 2.09721 -0.74684 0.0396847 -0.663818 83 152 92
0.00210745 0.967841 2.0948 -0.510208 0.295301 -0.807765 85 152 93
0.0942681 0.955019 2.07584 0.112977 0.213916 -0.970297 103 197 124
0.0984632 0.956696 2.07971 0.242305 0.300394 -0.922525 109 206 133
0.104931 0.960894 2.08591 0.173775 0.0259258 -0.984444 114 216 145
-0.162672 1.0154 2.16663 -0.706511 0.01731 -0.70749 95 181 126
-0.155085 1.00869 2.16019 -0.476709 0.00975162 -0.879007 78 163 107
-0.107317 0.995752 2.13829 -0.673464 0.0170911 -0.739023 97 168 112
-0.106029 0.998888 2.13644 -0.350848 0.00485358 -0.93642 91 164 107
-0.103331 0.993571 2.13488 -0.55164 0.0915184 -0.829046 80 156 98
-0.0981837 0.993299 2.1314 -0.488335 0.100894 -0.866804 71 149 90
-0.0910061 0.994908 2.13049 -0.613874 -0.31193 -0.725161 72 147 90
-0.0889083 0.990218 2.12935 -0.629546 0.0555373 -0.774976 78 154 96
-0.0840843 0.989625 2.12738 -0.333069 0.0619853 -0.940863 79 154 95
-0.0789152 0.98899 2.12467 -0.158121 0.0239988 -0.987128 82 162 100
-0.0729859 0.989096 2.12419 -0.0756394 -0.181383 -0.980499 84 165 103
-0.0676898 0.989634 2.12478 -0.135224 -0.345444 -0.928646 90 170 107
-0.0645277 0.984826 2.1188 -0.164954 0.0258816 -0.985962 95 173 111
-0.0607095 0.985838 2.11639 -0.276811 -0.608252 -0.743912 92 170 107
-0.0569938 0.982593 2.11634 -0.500602 -0.448186 -0.740626 100 176 114
-0.0543777 0.984277 2.11566 -0.495463 -0.413304 -0.764 98 174 112
-0.0518179 0.985841 2.11545 -0.39469 -0.285405 -0.873364 96 172 110
-0.0522921 0.986364 2.11558 -0.381195 -0.279171 -0.881336 95 171 109
-0.0497531 0.983407 2.11696 -0.497812 -0.499222 -0.709197 101 176 114
-0.0453171 0.984504 2.11279 -0.303886 -0.190905 -0.933385 99 174 112
-0.0408194 0.984736 2.11217 -0.326056 -0.292751 -0.89888 100 174 111
-0.0240665 0.974833 2.10247 -0.0870996 -0.258951 -0.961955 103 185 115
0.0952194 0.96206 2.0805 0.391549 -0.186388 -0.901082 107 203 130
-0.163575 1.02062 2.1661 -0.594799 0.000955313 -0.803874 95 180 125
-0.157721 1.01395 2.16159 -0.379954 0.00721306 -0.924977 88 172 117
-0.160066 1.01924 2.16293 -0.358772 0.01403 -0.93332 93 176 121
-0.153164 1.01336 2.1589 -0.468499 -0.0004583 -0.883464 74 160 104
-0.152996 1.01362 2.15835 -0.527731 -0.000555605 -0.849411 75 160 104
-0.107207 1.00156 2.1383 -0.66003 0.00982541 -0.751175 95 167 111
-0.100624 0.998902 2.13336 -0.497382 0.0213641 -0.867268 70 148 90
-0.0869884 0.994143 2.12755 -0.204527 -0.0115869 -0.978792 75 150 92
-0.0821384 0.993582 2.12563 -0.298022 0.186124 -0.936237 72 147 88
-0.0758116 0.994087 2.12448 -0.100292 -0.10622 -0.989272 70 144 86
-0.0703852 0.99409 2.12394 -0.0613872 -0.242451 -0.96822 78 159 96
-0.0610186 0.990941 2.11623 0.0553157 -0.577353 -0.814619 81 160 98
-0.0573722 0.987716 2.11501 -0.364542 0.0157907 -0.931053 86 164 102
-0.0537176 0.989031 2.11517 -0.364702 0.0167873 -0.930973 85 163 101
-0.0482209 0.988676 2.11258 -0.25161 -0.309198 -0.917109 86 162 101
-0.0437915 0.988836 2.11158 -0.196644 -0.382071 -0.902969 89 165 102
-0.0411652 0.984958 2.11203 -0.311949 -0.262763 -0.913041 100 174 111
-0.0364424 0.984779 2.11064 -0.469731 -0.277558 -0.838042 99 174 110
-0.0364556 0.984704 2.11056 -0.467808 -0.280995 -0.837972 99 174 110
-0.162694 1.0243 2.16406 -0.445447 0.0180207 -0.895127 94 178 123
-0.151624 1.01785 2.15678 -0.5423 -0.0252897 -0.839804 74 158 103
-0.153154 1.01963 2.15826 -0.565666 -0.0268196 -0.824198 75 159 104
-0.155338 1.01876 2.16033 -0.519963 -0.00718677 -0.854158 79 163 108
-0.155353 1.01874 2.16045 -0.461781 -0.00996828 -0.886938 79 163 108
-0.131007 1.01193 2.1501 -0.250694 0.0791298 -0.964827 99 185 128
-0.107203 1.00748 2.1384 -0.625774 -0.018799 -0.779778 94 165 110
-0.105188 1.00793 2.13603 -0.437132 -0.0165418 -0.899245 86 160 103
-0.100508 1.00518 2.13342 -0.538449 0.00713101 -0.842628 69 147 88
-0.073024 0.998184 2.12266 -0.141909 -0.212999 -0.966692 73 147 89
-0.0730202 0.998254 2.12259 -0.128775 -0.209382 -0.969317 73 147 89
-0.054377 0.997295 2.11949 -0.713308 0.0700381 -0.697343 74 145 88
-0.0511304 0.993776 2.11423 -0.364506 0.0174866 -0.931037 79 157 95
-0.0468847 0.993183 2.11166 -0.491778 -0.50286 -0.710835 79 157 95
-0.0470356 0.993186 2.1114 -0.484098 -0.503787 -0.715435 80 157 95
-0.0390826 0.988802 2.11051 -0.320084 -0.228163 -0.919504 95 170 106
-0.0344352 0.988713 2.10878 -0.402383 -0.26823 -0.875295 97 173 108
-0.0307976 0.989442 2.10794 -0.236755 0.0816757 -0.96813 105 186 115
-0.0209312 0.987229 2.10249 0.24657 -0.0734051 -0.966341 101 184 111
-0.157344 1.02425 2.16195 -0.398636 0.0408793 -0.916198 87 170 115
-0.153453 1.02551 2.15825 -0.561861 -0.0598579 -0.825063 78 160 105
-0.155222 1.02504 2.16045 -0.463846 0.00584224 -0.885897 80 163 107
-0.14643 1.02469 2.15687 0.153022 -0.4718 -0.868325 77 158 105
-0.131451 1.01778 2.15004 -0.56433 -0.0389925 -0.824628 88 164 112
-0.126829 1.01745 2.14725 -0.443463 -0.0861827 -0.89214 88 164 110
-0.120017 1.01867 2.14567 -0.548325 -0.0509042 -0.834715 88 164 109
-0.109566 1.01271 2.1398 -0.42564 -0.0519954 -0.903397 96 168 112
-0.10585 1.0116 2.13657 -0.406769 0.0164904 -0.913382 89 162 106
-0.100486 1.01146 2.13364 -0.552102 -0.01068 -0.833708 70 146 88
-0.0758492 1.00335 2.12329 -0.433712 -0.136169 -0.890703 75 148 91
-0.0758967 1.0035 2.12382 -0.330537 0.0397551 -0.942955 75 148 91
-0.0707181 1.00323 2.1224 -0.365071 0.0171617 -0.930822 77 150 92
-0.0711905 1.00401 2.1221 -0.376774 -0.0127848 -0.926217 77 150 92
-0.0502336 1.00148 2.11879 -0.678576 0.12255 -0.724235 83 151 94
-0.0420762 0.992924 2.10995 -0.203926 -0.326503 -0.922936 84 160 96
-0.0371254 0.992869 2.10883 -0.364045 -0.169871 -0.915759 91 167 101
-0.029928 0.995351 2.10964 0.0243185 -0.442334 -0.896521 97 180 109
-0.0242675 0.991072 2.10234 0.058093 -0.0208376 -0.998094 97 181 108
-0.017705 0.992275 2.10386 -0.218995 -0.247311 -0.943864 98 182 108
-0.162613 1.03392 2.16967 -0.515263 0.13091 -0.846975 95 180 125
-0.157947 1.03037 2.16182 -0.213152 0.0854562 -0.973275 91 177 120
-0.14027 1.02893 2.15496 -0.441441 -0.694263 -0.568445 84 172 117
-0.130352 1.02178 2.1477 -0.605527 -0.170595 -0.777325 78 155 101
-0.124539 1.0223 2.14558 -0.388282 0.00273198 -0.921537 75 152 96
-0.117017 1.01914 2.14502 -0.735447 -0.0570877 -0.675173 88 163 107
-0.114292 1.01738 2.14155 -0.371906 -0.00621149 -0.92825 90 163 108
-0.108023 1.01738 2.13899 -0.611193 0.0314651 -0.790856 95 166 111
-0.10288 1.01704 2.13561 -0.446036 0.0459404 -0.893835 77 151 95
-0.0526792 1.00049 2.11423 -0.492821 0.188925 -0.849373 88 156 100
-0.047174 0.99893 2.11145 -0.349808 -0.0183915 -0.936641 92 168 106
-0.0492116 1.00534 2.11563 -0.320882 -0.716208 -0.619743 90 159 102
-0.0400339 0.997036 2.10835 0.00481207 -0.266352 -0.963864 94 177 109
-0.036017 0.997942 2.10862 -0.222628 -0.0644646 -0.97277 92 175 106
-0.0327838 0.999772 2.10889 -0.1314 0.0863076 -0.987565 95 178 108
-0.0273151 0.998726 2.10697 -0.163504 -0.00409007 -0.986534 87 164 97
-0.0206053 0.996206 2.10305 -0.252679 -0.350897 -0.901679 91 175 101
-0.166597 1.03762 2.16905 -0.674688 -0.144604 -0.723799 100 184 136
-0.16134 1.03766 2.16671 -0.301158 0.098283 -0.948496 99 176 130
-0.16118 1.03709 2.16574 -0.363719 0.17366 -0.915178 99 176 130
-0.154965 1.0353 2.1614 -0.207345 0.105178 -0.972597 94 176 127
-0.150727 1.03371 2.16015 -0.375439 0.215024 -0.90156 86 164 113
-0.145261 1.03296 2.15687 0.0727251 -0.568566 -0.819417 85 167 116
-0.141028 1.03137 2.15681 0.110331 -0.373438 -0.921071 82 165 112
-0.135109 1.02805 2.15169 0.409676 -0.015031 -0.912108 84 171 115
-0.137251 1.03231 2.15346 -0.272113 -0.507221 -0.817729 82 164 111
-0.125603 1.02677 2.14588 0.146767 -0.492868 -0.857636 79 161 104
-0.11207 1.02206 2.14029 -0.384851 0.0344317 -0.922336 87 160 104
-0.115108 1.02373 2.14383 -0.788284 -0.227826 -0.571579 80 155 99
-0.105604 1.02253 2.13754 -0.469772 0.10178 -0.876901 88 161 106
-0.0567933 1.01038 2.11653 0.226426 -0.153644 -0.961834 99 182 118
-0.0516199 1.00953 2.11538 0.135638 -0.190968 -0.97218 101 183 119
-0.0432883 1.00503 2.11339 -0.273462 0.147666 -0.95048 96 172 110
-0.0377523 1.00334 2.11051 -0.262902 0.162465 -0.951045 102 182 116
-0.0228081 1.00057 2.10299 -0.393894 -0.220414 -0.892337 96 178 106
-0.0186476 1.00013 2.10108 -0.247694 -0.350534 -0.903202 96 179 105
-0.167796 1.04274 2.16884 -0.635068 -0.129839 -0.761466 108 188 155
-0.162675 1.04078 2.16636 -0.510218 -0.0950581 -0.854776 119 191 161
-0.153942 1.03931 2.16244 -0.582153 0.172571 -0.794555 103 174 140
-0.151902 1.04034 2.16114 -0.209172 0.11029 -0.971639 120 194 166
-0.147218 1.03948 2.15987 -0.436672 -0.142636 -0.888241 100 173 135
-0.14585 1.03939 2.15772 -0.308803 0.0249208 -0.950799 108 182 148
-0.141159 1.03652 2.15784 0.000750323 -0.531747 -0.846903 93 175 124
-0.133045 1.03157 2.15053 -0.00780001 -0.505192 -0.862972 80 162 108
-0.127813 1.03096 2.14736 0.131901 -0.446753 -0.884881 79 161 105
-0.125362 1.02921 2.14674 0.136122 -0.465853 -0.87433 80 161 104
-0.120423 1.03058 2.14374 -0.356601 -0.516384 -0.778577 86 164 106
-0.100002 1.02241 2.13456 -0.444312 0.107411 -0.88941 73 147 91
-0.059537 1.01616 2.11778 -0.0562362 0.289128 -0.955637 83 169 105
-0.0543814 1.01546 2.11688 0.0562674 -0.350684 -0.934802 87 172 108
-0.045992 1.01018 2.11486 -0.180315 -0.0350979 -0.982983 97 172 111
-0.0401218 1.01015 2.11312 -0.212789 0.158002 -0.964239 104 185 119
-0.0311521 1.00934 2.11054 -0.789716 -0.0892244 -0.60695 91 158 99
-0.0283083 1.00859 2.10573 -0.426058 0.0505555 -0.903282 89 157 96
-0.0211375 1.00441 2.10313 -0.235006 0.148976 -0.960509 100 182 109
-0.169213 1.04828 2.16861 -0.47021 -0.0179799 -0.882372 106 187 158
-0.163753 1.04658 2.16634 -0.502784 -0.0890109 -0.859817 139 204 199
-0.159378 1.04496 2.16351 -0.617892 -0.145037 -0.772771 143 203 205
-0.153538 1.04448 2.16067 -0.33869 -0.244208 -0.908654 144 207 210
-0.155284 1.0435 2.16055 -0.606843 -0.199216 -0.769451 142 201 203
-0.147885 1.04217 2.15639 -0.427105 -0.231749 -0.873999 137 202 197
-0.148401 1.04127 2.1588 -0.646688 0.109689 -0.754827 119 185 166
-0.14727 1.04414 2.15885 -0.390651 -0.287229 -0.874581 139 203 200
-0.135871 1.03955 2.15563 -0.372418 -0.289806 -0.881656 94 165 124
-0.134189 1.03739 2.15199 -0.37994 -0.104187 -0.919125 96 171 129
-0.131422 1.03575 2.14865 -0.387289 0.110872 -0.915267 89 160 116
-0.123265 1.03742 2.14745 -0.468963 0.301545 -0.830147 89 159 112
-0.11496 1.03094 2.1413 -0.201634 0.0848797 -0.975776 87 158 103
-0.103163 1.03053 2.13657 -0.657903 0.121159 -0.743293 83 158 102
-0.097263 1.02742 2.13369 -0.369959 0.0600257 -0.927107 74 148 92
-0.0895379 1.02914 2.13295 -0.335131 0.124046 -0.93397 80 153 97
-0.0807768 1.02884 2.13141 -0.655263 -0.00478372 -0.755386 81 153 96
-0.0754091 1.02519 2.12493 -0.171275 0.0290415 -0.984795 79 151 94
-0.0569237 1.02019 2.11632 -0.361055 -0.00413001 -0.932535 80 165 102
-0.0487589 1.01498 2.11515 -0.162172 -0.0404859 -0.985932 88 164 104
-0.043252 1.01484 2.11391 -0.24664 -0.019264 -0.968916 90 167 105
-0.0302952 1.01389 2.10821 -0.494659 -0.60871 -0.62031 84 153 92
-0.0241269 1.00931 2.10367 -0.192831 0.0393133 -0.980444 101 182 110
-0.164657 1.05252 2.16641 -0.422801 -0.00935966 -0.906174 140 202 203
-0.159119 1.05257 2.16392 -0.452727 0.0190516 -0.891446 122 176 198
-0.155035 1.05032 2.16274 -0.420446 -0.148378 -0.895103 121 176 202
-0.150657 1.04984 2.16028 -0.299207 -0.0585775 -0.952388 132 188 213
-0.137578 1.04501 2.15586 -0.0211808 -0.89369 -0.448185 138 201 195
-0.138973 1.04516 2.15634 -0.0602215 -0.526761 -0.847878 138 202 198
-0.133409 1.04569 2.15295 -0.0896894 -0.568365 -0.817873 137 194 197
-0.128534 1.04271 2.15039 -0.628778 0.130659 -0.766529 115 179 158
-0.124977 1.04425 2.14897 -0.227903 -0.464999 -0.855474 130 195 184
-0.115658 1.03758 2.14347 -0.201196 0.0807886 -0.976214 98 171 122
-0.111266 1.03656 2.14149 -0.412951 0.155682 -0.897349 94 164 111
-0.104715 1.03712 2.13947 -0.181117 0.0558739 -0.981873 90 161 107
-0.0942543 1.03257 2.13289 -0.361651 0.00645095 -0.932291 69 144 88
-0.0880297 1.03324 2.13136 -0.377517 0.0172039 -0.925843 68 143 86
-0.0831061 1.02995 2.13203 -0.418308 0.131129 -0.89879 80 153 96
-0.0767571 1.03202 2.12847 -0.239467 0.107369 -0.964949 72 145 88
-0.0635049 1.0233 2.1209 -0.174746 0.18484 -0.967108 81 167 102
-0.0515439 1.01976 2.11529 -0.137857 -0.0275209 -0.99007 83 167 102
-0.04595 1.01942 2.1138 -0.369941 -0.0568817 -0.927312 77 156 95
-0.0406233 1.01967 2.11326 -0.231355 -0.0469576 -0.971735 76 156 93
-0.0351772 1.01885 2.11061 -0.306995 -0.848409 -0.431226 76 157 92
-0.0306893 1.01874 2.10744 -0.455317 0.100194 -0.884674 68 141 81
-0.0262009 1.01444 2.10521 -0.383316 -0.0365741 -0.922893 88 165 98
-0.0215795 1.01792 2.10542 -0.119662 -0.179607 -0.976434 90 165 98
-0.0175303 1.01638 2.10729 0.132565 -0.604695 -0.785347 101 181 108
-0.0145017 1.01958 2.10777 0.0595076 -0.623342 -0.779682 101 181 108
-0.172002 1.05803 2.16869 -0.348908 -0.00804979 -0.937122 98 185 149
-0.167389 1.05782 2.16772 -0.328167 -0.00760129 -0.944589 121 193 180
-0.161918 1.05778 2.16511 -0.518814 0.0233583 -0.854568 142 197 215
-0.152733 1.0552 2.16107 -0.473192 -0.103786 -0.874825 105 157 195
-0.147146 1.05577 2.16096 -0.573079 0.173953 -0.800825 101 154 190
-0.134965 1.04943 2.15233 0.0890242 -0.523423 -0.84741 136 191 218
-0.130389 1.04662 2.15063 -0.0703325 -0.536026 -0.841267 143 203 213
-0.133275 1.04983 2.14983 0.149844 -0.486058 -0.860985 125 179 212
-0.128197 1.04705 2.14797 0.0851049 -0.517715 -0.85131 143 201 218
-0.117741 1.04532 2.14843 -0.60926 0.172918 -0.773887 118 179 160
-0.112027 1.04317 2.14362 -0.571728 -0.0472668 -0.819081 109 172 141
-0.108179 1.0419 2.14038 -0.55635 -0.0263088 -0.830531 100 167 123
-0.107421 1.04025 2.13942 -0.561241 0.0620361 -0.825324 95 164 114
-0.0973239 1.03738 2.13404 -0.376771 0.0549595 -0.924674 70 144 89
-0.0816434 1.03446 2.13089 -0.505517 -0.045226 -0.861631 68 142 85
-0.072464 1.03029 2.12461 -0.301239 0.101707 -0.948109 73 145 88
-0.0670231 1.03108 2.12417 -0.080949 -0.257447 -0.962896 79 150 93
-0.0612132 1.028 2.11852 -0.162941 -0.198751 -0.96641 91 175 110
-0.0558563 1.02922 2.11753 -0.312538 0.0822857 -0.946335 92 173 110
-0.0174013 1.02006 2.10405 0.151118 -0.69696 -0.701006 94 175 103
-0.00803921 1.01538 2.09923 -0.235441 0.0879301 -0.967903 101 181 109
-0.00249736 1.01692 2.10075 -0.186094 0.02026 -0.982323 102 182 111
0.00395328 1.0209 2.10361 -0.153783 -0.0251931 -0.987783 103 182 111
0.0096895 1.02336 2.1114 -0.324774 -0.891148 -0.316824 104 182 111
0.0096895 1.02336 2.1114 -0.324774 -0.891148 -0.316824 104 182 111
-0.171072 1.06153 2.1669 -0.267529 -0.0058676 -0.963532 108 192 164
-0.164809 1.06263 2.16654 -0.354479 0.011171 -0.934997 140 202 207
-0.15984 1.05971 2.1639 -0.51014 0.0140241 -0.859977 128 180 209
-0.154902 1.05916 2.16172 -0.328941 0.0486487 -0.943097 111 163 202
-0.135349 1.05346 2.14945 0.127115 -0.53427 -0.835701 106 157 199
-0.139538 1.06008 2.16054 -0.654614 0.104813 -0.748662 106 154 196
-0.130479 1.05066 2.14797 0.023791 -0.615195 -0.788015 118 171 207
-0.12615 1.04772 2.14569 0.0514417 -0.558736 -0.827748 137 192 216
-0.111895 1.0479 2.14536 -0.775027 -0.127166 -0.619001 129 186 175
-0.10811 1.04642 2.14055 -0.706987 -0.0687612 -0.703876 111 174 145
-0.104565 1.04433 2.13771 -0.667325 -0.0599488 -0.74235 89 157 113
-0.0999685 1.04268 2.1356 -0.419712 0.0540777 -0.906045 74 146 96
-0.0947166 1.04247 2.13286 -0.276893 -0.0053032 -0.960886 73 153 96
-0.0776186 1.03765 2.12796 -0.376398 -0.614268 -0.693541 61 137 79
-0.0807471 1.04148 2.12881 -0.298416 0.102019 -0.948968 64 138 82
-0.069442 1.035 2.12364 -0.17177 -0.0189292 -0.984955 73 152 91
-0.0645208 1.03552 2.12288 -0.0794642 -0.107007 -0.991078 76 154 94
-0.0586209 1.03464 2.11935 -0.276958 0.131585 -0.95183 81 163 102
-0.052765 1.03464 2.11764 -0.277532 0.131121 -0.951726 84 167 105
-0.0129904 1.02192 2.10242 0.154811 -0.865171 -0.476982 87 169 97
-0.0113629 1.02247 2.10441 -0.410592 -0.607535 -0.679938 84 160 92
-0.00597092 1.02601 2.10516 0.146536 -0.673094 -0.724895 86 168 95
-0.00174531 1.02421 2.10224 0.309074 -0.615409 -0.725083 89 170 98
-5.25581e-005 1.0222 2.10074 -0.167185 -0.148674 -0.974651 87 161 94
0.00383142 1.0251 2.10155 -0.201323 -0.727024 -0.656434 83 156 90
0.00774909 1.02457 2.10572 -0.0848175 -0.395649 -0.914477 102 180 110
0.0139924 1.02273 2.10163 0.495916 -0.554247 -0.668489 102 179 110
0.0224247 1.02491 2.10315 -0.191262 -0.641774 -0.742661 101 178 108
-0.170958 1.0685 2.16926 -0.306707 0.0752585 -0.948824 99 185 152
-0.167069 1.0681 2.16792 -0.43804 0.031525 -0.898403 125 194 186
-0.162152 1.06765 2.16548 -0.505874 0.0309884 -0.862051 141 195 215
-0.161505 1.06797 2.16503 -0.511865 0.0267983 -0.858648 138 191 213
-0.157204 1.06445 2.16311 -0.257896 0.00347131 -0.966166 108 163 198
-0.13146 1.05394 2.14431 0.17176 -0.542895 -0.822048 107 152 198
-0.11344 1.05227 2.14422 -0.535325 -0.194267 -0.822002 131 182 199
-0.117542 1.05428 2.148 -0.617421 -0.615451 -0.489909 119 169 197
-0.108588 1.05167 2.14013 -0.653937 -0.0860667 -0.751638 118 177 165
-0.109863 1.05057 2.14125 -0.679007 -0.0782191 -0.729953 127 184 179
-0.105082 1.04975 2.13758 -0.660614 -0.0925965 -0.744994 91 158 119
-0.100049 1.04876 2.1361 -0.430879 -0.0835409 -0.898535 75 146 97
-0.0722534 1.03992 2.12403 -0.158421 -0.00905284 -0.98733 72 151 92
-0.0668395 1.04084 2.1246 -0.138007 0.26155 -0.955273 77 161 100
-0.00579333 1.02825 2.10081 -0.252957 -0.0250978 -0.967152 90 170 100
-0.000457577 1.02769 2.09955 -0.372492 -0.130347 -0.918836 88 168 98
0.0140847 1.02558 2.09732 0.466028 -0.39864 -0.789876 90 168 100
0.0175474 1.02584 2.10165 0.494554 -0.560342 -0.664404 99 176 108
0.0254049 1.02439 2.0942 0.305802 -0.822698 -0.479222 95 171 103
0.035425 1.01859 2.08601 0.0530881 0.10128 -0.993441 95 172 103
0.0362198 1.01745 2.08625 0.0672418 0.134671 -0.988606 97 173 104
0.0363025 1.01736 2.08611 0.0699547 0.146399 -0.986749 97 173 104
0.0385608 1.02039 2.08873 -0.0176623 -0.481679 -0.87617 96 173 104
0.0423935 1.02124 2.09049 0.0363788 -0.51426 -0.856862 97 174 105
0.0500974 1.01993 2.08588 0.47663 -0.580664 -0.66004 98 173 106
0.0571515 1.01857 2.08738 0.337491 -0.0621772 -0.939273 98 173 105
-0.168161 1.07356 2.16858 -0.444119 0.0477824 -0.894693 115 190 174
-0.164068 1.07367 2.16671 -0.430172 0.0417368 -0.901782 144 202 211
-0.1617 1.07423 2.16558 -0.481287 0.0184539 -0.876369 142 195 216
-0.157032 1.07068 2.16272 -0.508294 0.0551161 -0.859418 107 157 196
-0.113522 1.06001 2.1434 -0.506081 -0.069991 -0.859641 122 171 201
-0.109229 1.05734 2.14028 -0.601424 -0.0455959 -0.797628 123 179 179
-0.104951 1.05538 2.13754 -0.58968 -0.0411633 -0.806587 90 156 119
-0.100909 1.05419 2.13596 -0.441695 -0.0577515 -0.895305 77 149 100
-0.0953391 1.05464 2.13402 -0.433167 -0.0653842 -0.898939 67 140 88
-0.0809708 1.04946 2.13027 0.0835874 -0.558529 -0.825263 83 160 103
-0.0696244 1.04595 2.12528 -0.238897 0.166304 -0.956698 87 170 109
-0.0634109 1.04595 2.12373 -0.243858 0.167162 -0.955296 87 169 108
-0.0571103 1.04546 2.12132 -0.338549 0.0469902 -0.939775 86 167 108
-0.0517712 1.04554 2.11953 -0.359311 0.0155168 -0.933089 88 168 108
-0.00890623 1.02984 2.10046 -0.15986 0.135279 -0.977826 92 170 102
-0.00196676 1.0343 2.10152 -0.0830556 -0.0668833 -0.994298 101 177 110
0.00380334 1.03418 2.10087 -0.344908 0.0582905 -0.936825 101 176 109
0.00631748 1.02916 2.0995 -0.294598 0.0770337 -0.952511 88 166 98
0.025629 1.02801 2.09073 -0.13523 -0.62347 -0.770064 92 169 103
0.0362179 1.0241 2.08682 -0.176959 -0.696545 -0.69535 76 156 87
0.0408825 1.02411 2.08724 0.0779967 -0.497177 -0.864136 84 163 95
0.0499488 1.02369 2.08378 0.463862 -0.439654 -0.769114 88 167 99
0.0533183 1.02279 2.08601 0.108243 -0.612265 -0.783208 94 172 103
0.0549583 1.0226 2.08601 -0.0376077 -0.471652 -0.880982 95 172 103
0.0597168 1.02053 2.08417 0.334898 -0.0619791 -0.940214 97 172 106
0.0644544 1.0217 2.08629 0.413844 -0.224485 -0.882236 97 171 107
-0.17087 1.07927 2.17033 -0.414811 0.0604098 -0.9079 99 183 152
-0.164536 1.07988 2.16722 -0.388091 0.0248981 -0.921285 141 201 208
-0.166903 1.07917 2.16827 -0.425965 0.0394431 -0.903879 126 195 188
-0.155902 1.0743 2.16252 -0.400808 0.0322986 -0.915593 108 158 197
-0.109536 1.06343 2.14051 -0.525046 -0.0196663 -0.850847 125 179 183
-0.104955 1.06185 2.13821 -0.435465 -0.0421002 -0.899221 90 156 121
-0.0995687 1.06034 2.13675 -0.553329 -0.0689205 -0.830106 74 146 97
-0.0978825 1.05985 2.13532 -0.522917 -0.0540122 -0.85067 70 142 93
-0.0808995 1.05105 2.12408 -0.0672807 -0.943073 -0.32571 72 150 94
-0.0759468 1.05172 2.12554 0.0663401 -0.345494 -0.936073 80 163 103
-0.0715007 1.05177 2.12575 0.123398 -0.493917 -0.860709 84 166 106
-0.0663746 1.05184 2.1261 0.0786003 -0.436441 -0.896293 89 171 111
-0.0542764 1.04995 2.11986 -0.392496 -0.77166 -0.500488 84 161 103
-0.0504599 1.04985 2.11828 -0.0867326 -0.120415 -0.988928 86 161 104
-0.00511455 1.03578 2.1017 0.017722 -0.0176966 -0.999686 100 176 109
-0.00270684 1.04004 2.10235 0.369532 -0.0706183 -0.926531 100 177 110
0.00926486 1.03427 2.09901 -0.350228 0.205456 -0.913853 85 149 89
0.0180712 1.03293 2.09447 -0.2005 0.0270318 -0.979321 98 174 109
0.0312959 1.0316 2.08887 0.0423433 0.250887 -0.96709 96 172 106
0.0357579 1.02805 2.08406 0.0545731 -0.702105 -0.709979 91 168 102
0.0434531 1.02757 2.08536 0.00483897 -0.741501 -0.670935 85 162 95
0.057284 1.02509 2.085 -0.048786 -0.543976 -0.837682 86 163 95
0.0621167 1.02525 2.08411 0.0310987 -0.366114 -0.93005 91 167 102
-0.167339 1.08517 2.16849 -0.398662 0.0404911 -0.916204 122 192 184
-0.159052 1.07966 2.16453 -0.384098 0.00785458 -0.923259 115 165 198
-0.15864 1.08008 2.16433 -0.360893 -0.00151819 -0.932606 111 161 195
-0.154081 1.07887 2.16056 -0.56773 -0.00369099 -0.823207 95 144 189
-0.153005 1.07968 2.16148 -0.454513 -0.0124129 -0.890654 95 144 189
-0.147504 1.07992 2.15903 -0.251946 -0.233826 -0.939068 97 147 198
-0.114373 1.06663 2.14374 -0.463319 0.0282497 -0.885741 124 169 205
-0.107107 1.06732 2.1396 -0.402282 -0.0109124 -0.915451 104 164 147
-0.0997928 1.06178 2.13561 -0.415394 -0.0573694 -0.907831 73 145 96
-0.0743239 1.05743 2.12654 -0.16399 -0.455062 -0.875229 75 160 99
-0.0686494 1.05552 2.12369 0.0581873 -0.220104 -0.973739 77 160 100
-0.0637007 1.05554 2.12415 -0.397751 -0.394696 -0.828257 72 142 88
-0.0587752 1.05279 2.11749 0.0308828 -0.501765 -0.864453 72 150 93
-0.0581102 1.05334 2.11921 -0.551066 -0.286167 -0.783859 68 140 85
-0.0532306 1.054 2.11698 -0.112302 -0.128891 -0.985279 72 149 92
-0.00713387 1.0402 2.10073 -0.276373 0.0666484 -0.958737 93 171 104
-0.000604412 1.04309 2.10078 0.0036332 -0.0336657 -0.999427 95 172 105
0.00655461 1.0391 2.1001 -0.581255 -0.146433 -0.800437 86 150 90
0.00668178 1.03977 2.10127 -0.30242 -0.336774 -0.891698 86 150 90
0.0102854 1.03726 2.09558 -0.441145 0.193141 -0.876406 85 148 89
0.0152569 1.03985 2.09769 0.00916252 -0.467846 -0.883763 93 162 100
0.0141201 1.04158 2.09739 -0.188452 -0.691457 -0.697404 101 176 110
0.0228974 1.03701 2.09082 -0.256065 0.173742 -0.950918 100 175 110
0.0294447 1.03583 2.08821 0.240344 0.0849692 -0.966962 99 174 109
0.0256648 1.03235 2.08907 -0.0541319 0.23869 -0.969586 99 174 110
0.0358975 1.03398 2.08641 0.270238 0.0425507 -0.961853 97 173 108
0.0399464 1.03442 2.08824 0.111365 0.213481 -0.970579 95 171 106
0.0412521 1.03368 2.08736 -0.165364 0.156377 -0.973756 95 170 105
0.0473607 1.02972 2.08421 -0.297729 -0.377009 -0.877053 92 167 102
0.0545264 1.02861 2.08321 0.0439858 -0.503156 -0.863075 80 157 89
0.0593526 1.02881 2.08239 -0.216119 -0.374152 -0.901833 78 154 88
-0.169902 1.09091 2.17035 -0.554285 0.0256187 -0.831933 101 184 157
-0.161772 1.08505 2.16594 -0.458668 0.0275485 -0.88818 137 190 212
-0.161255 1.08537 2.16564 -0.483669 0.0391555 -0.874375 133 184 210
-0.156142 1.08487 2.16282 -0.432032 0.0121597 -0.901777 92 140 183
-0.155316 1.08546 2.1625 -0.480213 0.0308714 -0.876608 90 138 183
-0.142644 1.07965 2.1573 -0.390813 -0.0795447 -0.917027 99 148 201
-0.137166 1.07865 2.15343 -0.129002 -0.308756 -0.942352 100 148 200
-0.132339 1.07926 2.15374 -0.483586 -0.359876 -0.797893 100 144 196
-0.125945 1.07935 2.15194 -0.566447 -0.0141284 -0.823977 103 146 197
-0.119864 1.07393 2.14643 -0.457768 0.0414357 -0.888106 107 152 195
-0.114815 1.07329 2.14361 -0.331378 0.053069 -0.942004 121 167 203
-0.109848 1.0701 2.14106 -0.513855 0.0198787 -0.857646 125 176 185
-0.102354 1.06695 2.13678 -0.391426 -0.00793353 -0.920176 78 149 100
-0.10241 1.06684 2.13689 -0.39168 -0.00692979 -0.920075 78 149 101
-0.0971238 1.06694 2.13449 -0.417486 -0.0386608 -0.907861 70 142 92
-0.070601 1.06094 2.12496 -0.0565365 -0.425981 -0.902964 66 136 83
-0.0656176 1.06087 2.1246 -0.113056 -0.367431 -0.923154 72 149 93
-0.0637084 1.0587 2.12241 -0.390266 -0.383108 -0.83721 73 150 93
-0.0476391 1.05356 2.11563 -0.238114 -0.0461237 -0.970141 74 150 92
-0.0422815 1.05361 2.11439 -0.2471 -0.0429097 -0.96804 77 153 94
-0.0383786 1.05503 2.11522 -0.291299 0.107631 -0.950558 80 156 97
-0.0337191 1.05379 2.11178 -0.772592 -0.281717 -0.568979 73 143 88
-0.0302671 1.05257 2.10858 -0.682341 -0.00726235 -0.730998 68 138 82
-0.00489012 1.04438 2.10128 0.370684 -0.0719375 -0.925969 88 165 98
-0.00247261 1.04856 2.10178 0.370744 -0.0722293 -0.925922 89 167 100
0.00499682 1.04459 2.09991 -0.501 -0.388521 -0.773337 76 140 81
0.0096835 1.04283 2.09698 -0.405782 0.0738415 -0.910982 76 141 81
0.0129188 1.04372 2.09618 -0.145031 -0.06884 -0.987029 81 152 90
0.0174928 1.04454 2.09742 -0.00247896 -0.556135 -0.831088 94 172 105
0.0175775 1.04419 2.09604 -0.158158 -0.284685 -0.945484 85 156 94
0.0218643 1.03814 2.09044 -0.35571 0.0479468 -0.933366 99 174 109
0.0314747 1.04037 2.08869 0.219469 -0.199941 -0.954912 93 170 105
0.0362612 1.04022 2.08953 0.359869 -0.163454 -0.918573 96 172 107
0.0513489 1.03638 2.08498 0.115284 0.20724 -0.971474 96 170 104
0.0569804 1.03398 2.08172 -0.0461505 -0.0949461 -0.994412 96 168 103
0.0619916 1.03318 2.08182 0.055882 -0.118139 -0.991423 94 167 102
-0.170311 1.09672 2.16994 -0.326761 0.0290492 -0.94466 100 183 156
-0.164222 1.0908 2.1677 -0.530728 0.0255974 -0.847156 142 201 210
-0.16396 1.09134 2.16768 -0.612918 0.0258853 -0.789722 143 201 212
-0.158844 1.09064 2.16453 -0.458371 0.0229006 -0.888466 105 155 191
-0.134918 1.08302 2.15214 0.0253078 -0.503994 -0.863336 94 141 197
-0.123606 1.08418 2.15001 -0.42625 -0.231599 -0.874456 92 134 185
-0.119045 1.08081 2.14695 -0.535376 0.00614533 -0.844592 102 145 190
-0.114259 1.08026 2.14401 -0.419324 0.0122249 -0.907755 120 165 200
-0.109566 1.07669 2.1411 -0.506158 0.0279053 -0.861989 120 173 178
-0.104824 1.07322 2.13818 -0.490998 0.0305496 -0.870625 84 152 111
-0.100717 1.07124 2.13506 -0.348227 0.0225101 -0.93714 73 145 94
-0.104507 1.07235 2.13834 -0.394577 0.0180475 -0.918686 83 151 110
-0.0707671 1.06686 2.12438 -0.523521 0.0756892 -0.848644 69 138 85
-0.0658437 1.06838 2.12476 -0.375701 -0.0187441 -0.926551 71 139 87
-0.0603835 1.06387 2.12082 -0.672608 -0.0207593 -0.739708 67 136 84
-0.0513138 1.05992 2.11626 -0.0138211 -0.222432 -0.97485 79 159 99
-0.0421639 1.05907 2.11507 -0.299828 -0.155315 -0.941265 69 147 88
-0.0353916 1.05857 2.11185 -0.723902 -0.0904369 -0.68395 64 136 80
-0.0365069 1.05893 2.11311 -0.699308 -0.0582163 -0.712446 64 136 80
-0.0318868 1.05741 2.10873 -0.586716 -0.0275421 -0.809324 62 133 77
-0.0274517 1.05507 2.10651 -0.452518 0.0982711 -0.886324 64 133 76
-0.0222333 1.05791 2.10828 -0.327158 0.12217 -0.937039 65 134 75
-0.0121331 1.05429 2.10686 -0.796158 -0.0968868 -0.597281 77 143 83
-0.00465966 1.05289 2.10067 0.370962 -0.0723781 -0.925823 83 161 94
-0.00707114 1.04863 2.10006 0.341466 -0.0420815 -0.938952 89 167 99
0.000822319 1.04749 2.09841 0.504379 -0.491182 -0.71017 90 168 100
0.0159217 1.04958 2.098 0.127629 -0.609901 -0.782133 70 135 77
0.0144032 1.0454 2.0942 0.00245035 -0.546139 -0.837691 86 163 97
0.0248251 1.04241 2.09077 -0.196143 -0.115614 -0.973736 93 168 103
0.0224938 1.04666 2.09003 -0.393341 -0.815484 -0.424581 73 135 78
0.0341959 1.04436 2.08824 0.399514 -0.161321 -0.902421 80 158 92
0.0387572 1.04418 2.08967 0.365833 -0.162059 -0.916462 88 165 100
0.0446955 1.04257 2.08894 -0.0746425 0.325183 -0.942701 95 170 105
0.0486119 1.04286 2.08757 0.433466 -0.49283 -0.754471 93 168 103
0.0541588 1.03883 2.08143 0.0903282 -0.0922939 -0.991626 94 168 102
0.0595397 1.03709 2.08029 0.274586 0.0180769 -0.961393 95 168 103
-0.17328 1.10175 2.17095 -0.126327 0.00814459 -0.991955 93 183 143
-0.161611 1.09632 2.16623 -0.521502 0.049242 -0.851828 134 186 212
-0.16382 1.09738 2.16786 -0.592145 0.0413527 -0.80477 143 199 213
-0.155597 1.09665 2.16369 -0.374869 0.0645825 -0.924826 88 135 181
-0.109416 1.0831 2.14099 -0.61536 0.0148414 -0.788106 118 172 174
-0.104889 1.0794 2.138 -0.513519 0.0178375 -0.857893 84 153 111
-0.102522 1.07692 2.13683 -0.398969 0.0187027 -0.916773 77 149 99
-0.0600901 1.06815 2.12259 -0.298326 0.0926555 -0.949956 75 150 94
-0.0545687 1.06715 2.11991 -0.190517 -0.114041 -0.975037 75 149 94
-0.0491042 1.06638 2.11811 -0.096978 -0.234933 -0.967162 74 149 94
-0.0468113 1.06124 2.11222 -0.665852 0.0519943 -0.74427 65 136 82
-0.0362774 1.06531 2.11379 -0.134406 -0.103587 -0.985497 76 158 97
-0.0325619 1.06244 2.10944 -0.158859 -0.0157099 -0.987176 76 157 94
-0.0157548 1.0587 2.10732 -0.487329 0.0825479 -0.869308 67 134 74
-0.0111675 1.05762 2.10275 -0.819393 -0.250381 -0.51566 64 132 72
-0.00725936 1.05687 2.10032 -0.350657 -0.187062 -0.917631 67 141 78
0.00242722 1.057 2.09892 -0.443213 -0.32664 -0.834787 77 157 92
0.0422962 1.04707 2.08818 0.1264 0.154228 -0.979917 81 158 93
0.0567858 1.0434 2.08137 0.0744381 -0.0887169 -0.993272 84 159 95
-0.167328 1.10198 2.16917 -0.414395 0.036874 -0.90935 122 192 184
-0.168171 1.10642 2.17001 -0.468548 0.0297552 -0.882937 113 188 173
-0.160976 1.10298 2.16625 -0.479222 0.0421737 -0.87668 128 178 207
-0.16337 1.10372 2.16787 -0.599901 0.0552667 -0.798163 142 197 213
-0.156335 1.09927 2.16332 -0.526585 0.0583 -0.848121 96 143 188
-0.121318 1.08897 2.14805 -0.479076 -0.0133907 -0.877671 85 128 176
-0.11427 1.08579 2.14393 -0.3911 0.00612175 -0.920328 118 163 197
-0.105027 1.08616 2.13771 -0.576777 0.0238251 -0.816554 84 152 110
-0.105603 1.08182 2.13791 -0.627577 0.015899 -0.778393 86 153 115
-0.099977 1.08193 2.1356 -0.380445 0.0202301 -0.924582 71 143 93
-0.0706807 1.07588 2.12612 -0.294024 -0.500014 -0.814577 84 165 105
-0.0633258 1.07356 2.12411 -0.20587 0.0573822 -0.976896 91 170 112
-0.0574155 1.07224 2.12058 -0.284291 -0.173824 -0.942849 91 170 112
-0.0519433 1.07127 2.11792 -0.24854 -0.129888 -0.959873 90 169 111
-0.0332276 1.06811 2.10957 -0.106629 -0.089718 -0.990243 73 149 91
-0.0220548 1.06564 2.10886 -0.0568526 -0.485797 -0.872221 71 146 86
-0.00253826 1.0567 2.09825 0.036157 -0.354216 -0.934464 74 153 87
0.00680934 1.05694 2.0965 0.074076 -0.445395 -0.892264 80 158 93
0.0612571 1.04833 2.08242 0.466459 -0.580198 -0.667672 75 152 87
-0.218267 1.17002 2.2697 0.282578 -0.873849 -0.395648 81 111 103
-0.218313 1.16998 2.2697 0.281528 -0.874955 -0.393949 81 111 103
-0.214683 1.17106 2.26569 0.280302 -0.873504 -0.398023 85 122 107
-0.211016 1.16924 2.26812 0.28016 -0.873347 -0.398466 87 151 121
-0.170474 1.10726 2.17049 -0.310534 0.0496824 -0.949263 100 182 154
-0.173585 1.11224 2.17149 -0.118731 -0.0221463 -0.992679 93 181 142
-0.162796 1.11009 2.16784 -0.60987 0.0492239 -0.790971 139 195 213
-0.163703 1.10899 2.1683 -0.459804 0.0380645 -0.887204 141 199 213
-0.155846 1.10575 2.16317 -0.392545 0.0149287 -0.919612 85 131 177
-0.119149 1.09249 2.14675 -0.559124 -0.0206718 -0.828826 97 139 185
-0.114098 1.09209 2.14397 -0.406353 0.0254236 -0.913363 121 166 200
-0.109282 1.0893 2.14098 -0.618972 0.0236351 -0.785058 117 171 171
-0.102455 1.08762 2.13338 -0.609384 0.0402431 -0.791854 73 147 97
-0.0760014 1.0779 2.1208 0.0476443 -0.952969 -0.299298 74 155 95
-0.0714783 1.07838 2.12192 0.0717257 -0.421226 -0.904115 75 156 96
-0.0666327 1.07849 2.12259 0.0928184 -0.402854 -0.910546 80 159 100
-0.0628134 1.07936 2.12205 -0.360456 -0.21061 -0.908688 78 153 97
-0.0578451 1.07914 2.11932 -0.441876 -0.20327 -0.873743 78 154 96
-0.0512926 1.07608 2.12006 -0.499806 -0.432208 -0.750593 93 171 112
-0.0468188 1.07594 2.11734 -0.270298 -0.580065 -0.768416 93 172 113
-0.0421052 1.0771 2.118 -0.363527 -0.099318 -0.926274 83 150 97
-0.0363038 1.07792 2.11729 -0.241346 0.08904 -0.966346 82 150 97
-0.0298928 1.07056 2.11082 -0.239253 0.0798878 -0.967665 73 148 89
-0.024497 1.07079 2.10954 -0.232675 -0.0321331 -0.972024 71 147 86
-0.0189385 1.07082 2.10824 -0.208956 -0.0628421 -0.975904 71 144 83
-0.0175007 1.07289 2.11066 -0.446993 -0.128759 -0.885222 66 133 74
-0.0134364 1.07084 2.10709 -0.177669 -0.0734251 -0.981347 71 144 82
-0.00768188 1.06963 2.10412 -0.110758 0.281743 -0.953076 76 154 89
-0.218261 1.17296 2.26327 0.283171 -0.873142 -0.396785 82 110 102
-0.218333 1.17289 2.26326 0.282028 -0.875846 -0.391604 82 110 102
-0.214604 1.17114 2.26571 0.28192 -0.873001 -0.397983 85 122 108
-0.211024 1.17222 2.26175 0.280928 -0.872678 -0.399391 85 143 117
-0.205249 1.17218 2.26556 0.279698 -0.872108 -0.401492 104 187 144
-0.203578 1.17155 2.26036 0.275149 -0.869036 -0.411181 107 198 146
-0.200007 1.16965 2.26273 0.275202 -0.874299 -0.399832 109 204 149
-0.168144 1.11683 2.17055 -0.500643 0.0564022 -0.863814 113 188 172
-0.157639 1.10916 2.16528 -0.299179 0.0395687 -0.953376 98 145 184
-0.15756 1.11375 2.16556 -0.416833 0.129145 -0.899762 120 170 202
-0.152019 1.10909 2.16341 -0.209174 0.0890504 -0.973815 92 141 191
-0.14616 1.10976 2.1632 -0.449315 -0.707718 -0.545207 93 142 199
-0.113638 1.09857 2.14412 -0.430798 0.0474316 -0.901201 121 167 198
-0.108879 1.09569 2.14107 -0.616935 0.0258877 -0.786588 112 169 165
-0.104016 1.09293 2.13809 -0.439032 0.0365527 -0.897728 80 150 105
-0.104115 1.09306 2.13806 -0.459 0.0348614 -0.887752 80 150 105
-0.0683444 1.08186 2.11958 -0.223736 -0.559164 -0.798297 75 157 97
-0.0639489 1.08213 2.11981 -0.288774 -0.565913 -0.772239 73 149 92
-0.0599464 1.08242 2.11787 -0.430352 -0.379124 -0.819184 77 159 98
-0.0501529 1.07989 2.11702 -0.440985 -0.474479 -0.761841 82 156 100
-0.0351645 1.08102 2.11411 -0.16963 0.0657735 -0.983311 97 176 115
-0.0302161 1.07724 2.11237 -0.195399 -0.051824 -0.979354 86 161 102
-0.0273931 1.07531 2.10989 -0.299545 -0.0788315 -0.95082 84 158 99
-0.0220724 1.07543 2.10835 -0.175128 -0.460713 -0.8701 82 155 95
-0.0173114 1.07539 2.10736 -0.528916 -0.608555 -0.591531 76 142 85
-0.0106543 1.07538 2.10563 -0.0208573 -0.573368 -0.819033 82 153 92
0.000710349 1.06692 2.0988 -0.394281 -0.0366117 -0.91826 74 151 87
-0.000441968 1.06901 2.10055 -0.395172 -0.0416422 -0.917663 70 141 80
0.00447407 1.06877 2.09779 -0.177222 -0.0882311 -0.980208 70 140 80
0.0100251 1.06892 2.09703 -0.251562 -0.190907 -0.948826 83 156 93
0.00916599 1.07021 2.09776 -0.26338 0.100908 -0.9594 80 156 92
-0.220346 1.17406 2.25545 0.0691053 -0.982616 -0.17231 79 109 102
-0.211387 1.17481 2.25526 0.275762 -0.885008 -0.375121 81 135 110
-0.207344 1.17331 2.25789 0.264427 -0.873593 -0.408551 94 174 131
-0.199998 1.17263 2.25644 0.275368 -0.87479 -0.398641 108 205 148
-0.171248 1.1207 2.17119 -0.134424 0.0122339 -0.990848 97 181 147
-0.16199 1.11684 2.16836 -0.336026 0.118537 -0.934364 141 195 213
-0.154817 1.1142 2.16446 -0.24094 0.111902 -0.964067 122 173 210
-0.148433 1.11464 2.16389 -0.291546 0.0415969 -0.955652 110 159 206
-0.1423 1.11478 2.16296 -0.248354 -0.105752 -0.96288 100 148 198
-0.131387 1.11087 2.1563 -0.305009 -0.784889 -0.539369 86 128 183
-0.118156 1.10585 2.14728 -0.537012 0.0268654 -0.843147 99 142 187
-0.108379 1.10217 2.1412 -0.56572 0.0151886 -0.824457 109 167 156
