ply
format ascii 1.0
comment PCL generated
element vertex 1150
property float x
property float y
property float z
element camera 1
property float view_px
property float view_py
property float view_pz
property float x_axisx
property float x_axisy
property float x_axisz
property float y_axisx
property float y_axisy
property float y_axisz
property float z_axisx
property float z_axisy
property float z_axisz
property float focal
property float scalex
property float scaley
property float centerx
property float centery
property int viewportx
property int viewporty
property float k1
property float k2
end_header
-0.93523836 0.87709117 -0.46262151
-0.96726322 0.87890023 -0.56543911
-0.97221941 0.87845689 -0.54783267
-0.97300816 0.8768115 -0.51709491
-1.0148757 0.87808913 -0.53876221
-1.0210198 0.87743056 -0.51453412
-1.0592054 0.87847227 -0.51225132
-1.0957656 0.88152415 -0.58108187
-1.0699979 0.88004929 -0.48579496
-1.0846382 0.88099653 -0.48858485
-1.1172251 0.88238043 -0.50493401
-0.94290775 0.88024491 -0.58163071
-0.98141718 0.87648952 -0.5108844
-1.0275264 0.87851012 -0.56138903
-0.98896563 0.87881994 -0.41289404
-1.0366278 0.88024127 -0.44133148
-1.0729048 0.87822902 -0.52630454
-1.0553294 0.88057286 -0.45677346
-1.0920238 0.88049018 -0.50326592
-0.90556681 0.87701494 -0.51315933
-0.91591907 0.87831753 -0.52739453
-0.95108408 0.87651885 -0.48759007
-0.98812586 0.87595689 -0.4630751
-1.0038478 0.87717909 -0.44624311
-1.1942884 1.236329 -0.50251037
-1.0056372 0.8768912 -0.48694465
-1.0236571 0.87741005 -0.44483322
-1.0467072 0.88075119 -0.6453746
-1.0623325 0.88044435 -0.62489903
-1.006485 0.88166422 -0.63340044
-1.0450785 0.88001895 -0.62411791
-1.0011986 0.88180745 -0.63103133
-1.0103936 0.88169438 -0.62845194
-1.0334436 0.88105631 -0.62358326
-1.0160393 0.88110387 -0.61965817
-1.0025053 0.88100505 -0.62138218
-1.0239192 0.87921327 -0.61505079
-0.9950431 0.8806811 -0.6154623
-1.017035 0.87950426 -0.60845208
-1.0113658 0.87987214 -0.60734463
-0.98797542 0.88156694 -0.60876095
-1.0293421 0.87892181 -0.5983727
-0.97740918 0.88177443 -0.60729492
-1.0182344 0.8789497 -0.59668851
-1.0021502 0.87952965 -0.59419268
-1.0468203 0.8785035 -0.58212519
-1.025486 0.87951797 -0.58697587
-1.0280924 0.87798613 -0.57971978
-1.0379673 0.87785178 -0.57545757
-0.99231309 0.87900543 -0.58111966
-0.95864159 0.88021773 -0.58151978
-0.97896457 0.87900692 -0.57247823
-1.129752 0.88170248 -0.53790319
-0.96888357 0.87945294 -0.57161939
-1.0165709 0.87793088 -0.56005961
-1.071853 0.87824166 -0.54483938
-1.0469209 0.87716264 -0.54972571
-0.9579851 0.87891024 -0.57005298
-1.0896579 0.87875134 -0.53719461
-1.1009755 0.87930727 -0.53423792
-1.025259 0.87874031 -0.60368973
-1.0756588 0.87875038 -0.53714097
-0.97009063 0.87922966 -0.56126201
-0.95610058 0.87998277 -0.56358677
-1.080711 0.87811625 -0.53014463
-1.0275025 0.8779372 -0.54273427
-0.99206847 0.87836039 -0.54969525
-0.92410326 0.88017148 -0.563914
-0.9720968 0.87731266 -0.54072827
-1.016278 0.87645674 -0.52680176
-1.0113808 0.87713212 -0.52687067
-1.0272067 0.87741184 -0.52122802
-0.97355288 0.8778227 -0.53097492
-0.96128684 0.87835759 -0.53420115
-1.054314 0.87759954 -0.50848311
-1.0246323 0.87666392 -0.51424843
-0.99321514 0.87810993 -0.51796252
-0.97298604 0.87671441 -0.52247882
-0.98581278 0.87667078 -0.51702315
-0.90535867 0.87871438 -0.53767627
-1.0473599 0.87806118 -0.49951386
-1.0896384 0.88066643 -0.485706
-1.011171 0.87591618 -0.50528038
-1.0816177 0.88071316 -0.48582655
-1.0332704 0.87745887 -0.49907383
-0.93249786 0.87777698 -0.52388519
-1.0513928 0.87761319 -0.49046615
-1.0204375 0.8767435 -0.49905273
-0.93885964 0.87707508 -0.51785153
-0.88902611 0.87710881 -0.52383024
-0.9912951 0.87706667 -0.49588063
-0.91707426 0.8771227 -0.50842971
-1.004079 0.87558419 -0.48213142
-1.0346502 0.87783784 -0.47296891
-0.92519939 0.87495869 -0.50155544
-1.014009 0.87606847 -0.4731513
-0.96601105 0.87625349 -0.48475248
-1.0331157 0.87779301 -0.4633351
-0.94135636 0.87629843 -0.48959416
-0.98292261 0.87639886 -0.46462908
-1.0108336 0.87685919 -0.45504329
-0.99571967 0.876966 -0.4367322
-1.0651338 0.87863356 -0.48943374
-1.0579267 0.88077611 -0.62929195
-1.1002011 0.87953651 -0.58183199
-0.96236247 0.88027072 -0.59331018
-1.0804701 0.87974077 -0.56699342
-1.058792 0.87763292 -0.56403589
-1.0153161 0.87891239 -0.57222766
-1.0519522 0.87835056 -0.56368381
-1.0049224 0.87921518 -0.5712744
-1.0571953 0.87828904 -0.55763859
-0.96676522 0.87995738 -0.57654983
-0.9563657 0.87962115 -0.57538259
-1.025494 0.87735295 -0.55437034
-1.033093 0.8766923 -0.54196334
-1.0494553 0.87784255 -0.53761429
-1.0737501 0.87811524 -0.53078115
-1.1157399 0.881437 -0.51553488
-0.93693167 0.87810177 -0.53652781
-1.0898297 0.87994748 -0.4943628
-0.9523859 0.87757641 -0.52724767
-1.0579083 0.87814713 -0.49069735
-1.0140951 0.87625772 -0.49774471
-0.9466067 0.87619132 -0.50577867
-0.97083229 0.87645864 -0.48610881
-0.91404223 0.8775478 -0.49567387
-1.0535512 0.87974143 -0.45232561
-0.93563282 0.87677824 -0.48792714
-1.0302562 0.87920129 -0.4345077
-0.99100065 0.87652558 -0.44565099
-0.98512322 0.87686437 -0.41688007
-0.96849918 0.87751204 -0.41788462
-1.1138463 0.88064027 -0.52809298
-1.0154088 0.8802799 -0.60235065
-1.0676025 0.87890571 -0.57157588
-1.0767454 0.87751269 -0.51475602
-0.91206181 0.87820119 -0.54570484
-0.94189578 0.87767309 -0.53714997
-0.93280476 0.878465 -0.536493
-1.0083544 0.8776446 -0.4363291
-1.0150515 0.87909085 -0.42680266
-1.1509997 0.88538516 -0.55009544
-1.1316791 0.88456982 -0.57221365
-1.1155013 0.88548291 -0.59378827
-1.1099445 0.88476425 -0.59944427
-1.0976292 0.88314652 -0.61507589
-1.0997127 0.88019377 -0.57549459
-1.0992546 0.88259751 -0.59240347
-1.0958856 0.87982357 -0.59418368
-1.0925221 0.87997139 -0.58911282
-1.0942482 0.88117987 -0.56390148
-1.0887454 0.88134205 -0.59497648
-1.0884917 0.88098568 -0.60530084
-1.0851831 0.87991393 -0.58934146
-1.0826805 0.88395888 -0.61376256
-1.0798246 0.88384843 -0.63830817
-1.0757351 0.88290435 -0.61088061
-1.0723411 0.87975615 -0.60379106
-1.0735462 0.87878275 -0.56517953
-1.0719376 0.87975264 -0.57000941
-1.0701203 0.88074565 -0.59472769
-1.0666041 0.88276505 -0.65175265
-1.0684422 0.87658387 -0.56598252
-1.0691609 0.88066936 -0.58231431
-1.0682374 0.88078833 -0.60723025
-1.067577 0.88200784 -0.62396812
-1.066281 0.88107497 -0.62877351
-1.0664937 0.8816573 -0.61763382
-1.066534 0.87982708 -0.59582269
-1.0649824 0.88244987 -0.63410759
-1.0621616 0.88305056 -0.64461517
-1.0597104 0.87940449 -0.61399657
-1.0583819 0.87974626 -0.64197516
-1.0612639 0.8780371 -0.56526965
-1.0610001 0.88043171 -0.59450805
-1.0600806 0.87989998 -0.60229945
-1.0591779 0.88051182 -0.61914057
-1.0590293 0.88100255 -0.6363582
-1.0593652 0.88251674 -0.64982289
-1.0593152 0.87805873 -0.57105678
-1.058183 0.88027817 -0.57488763
-1.0577029 0.87892205 -0.58472478
-1.0561925 0.87892234 -0.59039289
-1.0559895 0.88050264 -0.60728997
-1.0558259 0.8810578 -0.61086166
-1.0537366 0.88120288 -0.65203077
-1.0541371 0.87993884 -0.61337411
-1.0524642 0.87825614 -0.57651991
-1.0504947 0.88020116 -0.63600808
-1.0502381 0.87958515 -0.60130835
-1.04906 0.88187158 -0.65097809
-1.0497425 0.87823796 -0.56988382
-1.0502613 0.87933737 -0.5902608
-1.0487334 0.88014072 -0.63122064
-1.0484246 0.88373846 -0.65391678
-1.0449587 0.87965757 -0.58761954
-1.0439954 0.87698138 -0.56495905
-1.0436448 0.87857133 -0.5964722
-1.0422922 0.88146061 -0.64591867
-1.0435308 0.87906957 -0.55450273
-1.042702 0.87831765 -0.57525361
-1.0412741 0.87725365 -0.57064188
-1.0413957 0.87901545 -0.58804375
-1.0407623 0.88004076 -0.61780441
-1.0411179 0.88084656 -0.62274241
-1.0391096 0.87835348 -0.60548484
-1.0391912 0.8818329 -0.64989972
-1.038947 0.87916064 -0.58062452
-1.0386101 0.87906402 -0.59479606
-1.0378854 0.8831718 -0.65310121
-1.0363647 0.87751198 -0.58285373
-1.0351032 0.87833232 -0.58134502
-1.0330093 0.8803485 -0.64628762
-1.0345579 0.87850469 -0.56965297
-1.0347636 0.87990206 -0.58751351
-1.0324101 0.87906754 -0.60546112
-1.0307268 0.88045317 -0.63973981
-1.0300119 0.87877756 -0.61192101
-1.0285485 0.87977505 -0.62748724
-1.027733 0.87894267 -0.60550964
-1.0274856 0.88107616 -0.61587185
-1.025409 0.88195616 -0.6423164
-1.024706 0.87668872 -0.53620601
-1.0245776 0.87680572 -0.54935962
-1.0246162 0.87873173 -0.56693935
-1.024207 0.88168168 -0.63610053
-1.0232887 0.8790893 -0.5920471
-1.0233308 0.87915432 -0.62729967
-1.022267 0.88182211 -0.63186944
-1.0216105 0.87852079 -0.54654986
-1.0211105 0.87756073 -0.55442095
-1.0211716 0.88090765 -0.60776514
-1.0199654 0.8806358 -0.6373629
-1.0195093 0.87784803 -0.57994342
-1.0195625 0.8796432 -0.61502433
-1.0196514 0.88086563 -0.61940068
-1.0183759 0.87707424 -0.57486528
-1.0171345 0.87647635 -0.55502504
-1.0170743 0.88020247 -0.62586999
-1.0147232 0.87676531 -0.54779327
-1.0147331 0.87812215 -0.56582528
-1.0140084 0.87722421 -0.53445727
-1.0124006 0.87785381 -0.57290179
-1.0124208 0.87871361 -0.59044707
-1.0128416 0.88180238 -0.63469279
-1.0111494 0.87751567 -0.55302113
-1.0110348 0.87897319 -0.60349798
-1.0097538 0.87680697 -0.53336954
-1.0099615 0.87987804 -0.61965907
-1.0103503 0.88074893 -0.62369686
-1.0098206 0.87958837 -0.54471701
-1.0087012 0.87686253 -0.560862
-1.008963 0.8784638 -0.59691817
-1.0074314 0.87857175 -0.59061813
-1.0062124 0.87782228 -0.53850538
-1.006498 0.87809181 -0.55879772
-1.0043697 0.8752889 -0.52803218
-1.0052729 0.87791151 -0.58528048
-1.0038248 0.87771302 -0.57852685
-1.0046456 0.88050354 -0.62344241
-1.0029861 0.87909931 -0.61312896
-1.0014492 0.87763029 -0.57153714
-1.0015277 0.87894523 -0.60674971
-0.99937057 0.87885243 -0.60227323
-0.99815029 0.87780523 -0.57814395
-0.99847329 0.88094378 -0.62198412
-0.99865896 0.88169312 -0.62637949
-0.99586934 0.87570828 -0.53428584
-0.99685955 0.87769181 -0.59063381
-0.99540216 0.87811238 -0.56352639
-0.9965387 0.88057727 -0.59913325
-0.99443358 0.8780781 -0.58373904
-0.99433857 0.87881219 -0.5999648
-0.99282217 0.87762082 -0.53096688
-0.989057 0.87467039 -0.5270943
-0.99140054 0.88043636 -0.61543375
-0.98824269 0.8780188 -0.58187127
-0.98664588 0.87827379 -0.54248434
-0.98724997 0.87927246 -0.59834981
-0.98527026 0.87734556 -0.53745562
-0.98476028 0.87873012 -0.58664334
-0.98496544 0.87961674 -0.59153438
-0.98271632 0.87714386 -0.54301316
-0.98287779 0.87761778 -0.56271476
-0.98437232 0.8807832 -0.61538333
-0.98148578 0.87649882 -0.53756863
-0.97990572 0.87645495 -0.5507704
-0.98103571 0.87793553 -0.5747329
-0.97994751 0.87868601 -0.59334826
-0.98052317 0.87961149 -0.5976339
-0.97615528 0.87477362 -0.50335014
-0.97769117 0.87681532 -0.56289381
-0.97692549 0.87655574 -0.54448712
-0.97494018 0.87700123 -0.50990379
-0.97655857 0.8790105 -0.56713194
-0.97658587 0.87957811 -0.58448762
-0.97478586 0.87825722 -0.57310736
-0.97343457 0.87778181 -0.56780893
-0.97343177 0.87730223 -0.60421973
-0.97098929 0.87630564 -0.52447826
-0.9701426 0.87659895 -0.5354917
-0.97042638 0.8773765 -0.55442125
-0.96891493 0.87617707 -0.53023213
-0.96711606 0.87707776 -0.56135452
-0.96568489 0.87870765 -0.58446586
-0.96596777 0.87982148 -0.60100371
-0.96223408 0.87644112 -0.52870208
-0.96383572 0.87753642 -0.57320237
-0.95973623 0.87506133 -0.5017103
-0.96130776 0.87623554 -0.54183561
-0.96335149 0.8791849 -0.59484214
-0.95817447 0.87581402 -0.52891749
-0.95670372 0.87749881 -0.53363788
-0.95449638 0.87566459 -0.53502071
-0.95590001 0.87902218 -0.58794045
-0.95316756 0.87656021 -0.54776925
-0.9543677 0.8784228 -0.58289641
-0.95508939 0.88061613 -0.59217316
-0.95033675 0.87543428 -0.52152437
-0.95228159 0.87840539 -0.53850669
-0.9529866 0.87828219 -0.57627016
-0.94966197 0.87508863 -0.53499383
-0.94897795 0.87738562 -0.52622563
-0.94812357 0.87643522 -0.54116613
-0.9460544 0.87552315 -0.52915215
-0.94866472 0.87966919 -0.58610958
-0.94199318 0.87538022 -0.51204324
-0.94495624 0.87820363 -0.55034584
-0.94056809 0.87581551 -0.52565169
-0.94120628 0.8758415 -0.54593045
-0.94197786 0.87655967 -0.55254966
-0.94312775 0.87807494 -0.56171024
-0.9380942 0.8745448 -0.50070304
-0.93741482 0.8750509 -0.51106471
-0.93998307 0.87803739 -0.55038005
-0.93420815 0.87552994 -0.50426799
-0.935983 0.87606525 -0.53280735
-0.93860805 0.87846553 -0.5661903
-0.93648273 0.87752354 -0.55711138
-0.93437999 0.87617522 -0.54538518
-0.93297452 0.87828535 -0.52976507
-0.93440384 0.87805247 -0.56775665
-0.93019593 0.87538344 -0.5263471
-0.93261135 0.87757468 -0.56263435
-0.92735904 0.87563914 -0.48876566
-0.92793703 0.8762778 -0.49596065
-0.93276012 0.88000548 -0.57216638
-0.92905545 0.87655044 -0.54323167
-0.92668575 0.87467259 -0.53355193
-0.92938977 0.87764573 -0.56775981
-0.92296016 0.87457335 -0.48843929
-0.9284516 0.87957281 -0.55955338
-0.92184097 0.87484682 -0.53931016
-0.92395228 0.87764502 -0.55551326
-0.91912901 0.87723744 -0.5150013
-0.91498309 0.87482965 -0.51096976
-0.91648072 0.87720537 -0.54217446
-0.91743034 0.87709206 -0.54841733
-0.91476119 0.87602609 -0.53645998
-0.91502583 0.87652969 -0.55462825
-0.90651393 0.87569553 -0.5076986
-0.90658563 0.87608552 -0.52759141
-0.90184981 0.87519252 -0.51567543
-0.9009617 0.87738121 -0.51251638
-0.9032017 0.8779074 -0.54484051
-0.90420425 0.87897897 -0.55069464
-0.89137429 0.87748355 -0.53699577
-1.1567705 0.88560688 -0.54363906
-1.1542469 0.88445699 -0.54628956
-1.148106 0.88454485 -0.55296397
-1.1442015 0.88425171 -0.55747128
-1.1431704 0.88257784 -0.53853494
-1.1410625 0.88115466 -0.53984225
-1.1388314 0.88225752 -0.53918976
-1.1375782 0.88241535 -0.53746945
-1.132412 0.88305593 -0.55269527
-1.1233401 0.87976635 -0.54845059
-1.1202273 0.88068628 -0.52474266
-1.1158085 0.88162494 -0.57207942
-1.1108837 0.88143462 -0.57427472
-1.1074558 0.88209045 -0.57909226
-1.1039836 0.88127822 -0.59138536
-1.1039705 0.88001013 -0.56894267
-1.1038361 0.87958771 -0.52807057
-1.1035365 0.87995303 -0.51209444
-1.096211 0.87997013 -0.52780133
-1.0931522 0.8808077 -0.55470085
-1.0920404 0.8791368 -0.53723311
-1.089632 0.88186127 -0.60026389
-1.0924963 0.87992162 -0.51267004
-1.089497 0.87924075 -0.55165142
-1.0903088 0.87919772 -0.50684679
-1.0869695 0.88065153 -0.57094419
-1.0839611 0.87945807 -0.55889523
-1.0837785 0.87888503 -0.50625521
-1.0799183 0.87901723 -0.55641299
-1.0790954 0.87904191 -0.55841815
-1.0799494 0.87915897 -0.50540388
-1.0781554 0.87781203 -0.53844059
-1.0775927 0.87861282 -0.53021175
-1.0769452 0.87845886 -0.50640905
-1.0747857 0.87799925 -0.5521431
-1.0769318 0.87963265 -0.47671595
-1.075641 0.87936294 -0.48859769
-1.0745057 0.87945628 -0.47806799
-1.073362 0.87824422 -0.50736201
-1.0741289 0.87981957 -0.4706893
-1.0727682 0.8784914 -0.4996618
-1.0717442 0.87895095 -0.48934293
-1.063759 0.87909549 -0.50637114
-1.0603632 0.88041312 -0.60619915
-1.0551293 0.88178706 -0.65699416
-1.0598714 0.87826377 -0.51589161
-1.058983 0.8790037 -0.53643119
-1.0592268 0.87907869 -0.46165767
-1.0539883 0.87969428 -0.60246778
-1.0562973 0.87864006 -0.49810919
-1.0550865 0.87765318 -0.48238552
-1.0530628 0.87766165 -0.55088425
-1.0536724 0.87798762 -0.47208583
-1.0488205 0.87997323 -0.6142078
-1.0508937 0.87748146 -0.47292453
-1.0498644 0.87756509 -0.54518664
-1.0475773 0.87829721 -0.5768038
-1.0451885 0.8784169 -0.47127604
-1.0418442 0.87676531 -0.54497665
-1.0420682 0.87756228 -0.4727585
-1.0411403 0.87674409 -0.53088468
-1.0414468 0.87831438 -0.44576797
-1.0389888 0.87657255 -0.52323925
-1.038464 0.87760764 -0.4731558
-1.0351735 0.87766868 -0.52919102
-1.034595 0.8770256 -0.48397586
-1.0323931 0.87628388 -0.53025657
-1.0321878 0.8782571 -0.56160122
-1.0315371 0.87668568 -0.48261014
-1.0300128 0.88030893 -0.63323039
-1.0295445 0.87809056 -0.47194418
-1.0284652 0.87847173 -0.44509399
-1.0280734 0.87671679 -0.49905396
-1.0246038 0.87534338 -0.48413479
-1.0239255 0.87690496 -0.52051461
-1.0225031 0.87621343 -0.49081019
-1.0203112 0.878295 -0.42584437
-1.0197618 0.87643176 -0.5210458
-1.0187968 0.87744844 -0.53435755
-1.0124768 0.8740139 -0.494569
-1.012867 0.87742782 -0.51849967
-1.0123711 0.87822467 -0.5582962
-1.0107311 0.87619454 -0.47333476
-1.006927 0.87637848 -0.4560113
-1.0034509 0.87508273 -0.48934984
-1.0014807 0.87544036 -0.47400466
-1.0005188 0.87735045 -0.45371121
-0.99811399 0.87348652 -0.48329759
-0.9988957 0.87642139 -0.49433815
-0.99642456 0.87655556 -0.46254963
-0.99452043 0.87653553 -0.42930767
-0.99395698 0.87548864 -0.48916274
-0.99027228 0.87635309 -0.43043289
-0.98850328 0.87501085 -0.4735069
-0.98474562 0.87495375 -0.48964226
-0.9831636 0.87734652 -0.4698759
-0.98155171 0.87661773 -0.48650992
-0.97699046 0.87480015 -0.48098591
-0.97131395 0.8758958 -0.49394318
-0.96815258 0.87485105 -0.49541998
-0.9607228 0.87619424 -0.45865518
-0.96448284 0.87507164 -0.5310607
-0.94817072 0.87482983 -0.45880708
-0.9466331 0.87810725 -0.44696128
-0.94405651 0.87564123 -0.49043983
-0.93860233 0.87686998 -0.48044991
-1.148757 0.88338608 -0.54779673
-1.1449014 0.88452715 -0.55165696
-1.1429687 0.88439226 -0.54275739
-1.1374615 0.88134235 -0.54653341
-1.1277251 0.88446659 -0.57442695
-1.1279409 0.88071442 -0.54131651
-1.1248659 0.88302416 -0.56577194
-1.1195601 0.88504452 -0.58287483
-1.1156861 0.88395929 -0.59162498
-1.1170104 0.88235217 -0.57263488
-1.1176503 0.88002861 -0.55719107
-1.1078081 0.88253874 -0.59385085
-1.1128781 0.88137096 -0.51826608
-1.1121707 0.8823548 -0.50211561
-1.1055671 0.87998402 -0.54483366
-1.0971075 0.88283747 -0.60110438
-1.1026443 0.88059825 -0.50208044
-1.1004335 0.88036275 -0.55182785
-1.0980283 0.88138682 -0.49368566
-1.0933286 0.88034731 -0.55103171
-1.0866303 0.88436717 -0.62178165
-1.0856431 0.8799243 -0.51247919
-1.0798398 0.87831116 -0.52393705
-1.0669271 0.88292956 -0.64286536
-1.0666922 0.87735617 -0.5095998
-1.0658435 0.8780396 -0.5300529
-1.0627886 0.87725008 -0.50015599
-1.0621969 0.87888026 -0.52150071
-1.0632123 0.87778425 -0.54681468
-1.0617093 0.87836939 -0.53047907
-1.0521314 0.87911642 -0.52892053
-1.0452231 0.87839836 -0.46291697
-1.0391446 0.87722409 -0.53723121
-1.0388013 0.87760985 -0.46569711
-1.0342256 0.87654859 -0.52481002
-1.0317973 0.87617487 -0.516285
-1.0318328 0.87852025 -0.534401
-1.0197158 0.87776935 -0.48019022
-1.0111021 0.87710673 -0.51279259
-1.0064496 0.8762207 -0.50008655
-1.0028399 0.87585932 -0.51404953
-0.9882322 0.8777653 -0.44459766
-0.98082662 0.87532514 -0.50548208
-0.96597892 0.8765648 -0.46243504
-0.95897943 0.87546813 -0.46430358
-0.9932059 0.87777984 -0.41837379
-0.96636653 0.87714911 -0.43102452
-0.9622668 0.87741268 -0.43310899
-0.99837071 0.87805051 -0.42187446
-0.97561067 0.87687105 -0.43016961
-0.98167276 0.87756819 -0.43443659
-0.97010142 0.87571567 -0.44530147
-1.0149097 0.87905842 -0.43307763
-0.96607178 0.87620419 -0.45066684
-1.0028554 0.87733674 -0.43932381
-1.0205685 0.87872171 -0.43658507
-0.55136001 1.2115098 -0.11413833
-0.39570132 1.204022 -0.12497406
-0.45339629 1.2105805 -0.17067532
-0.59420341 1.2177333 -0.19809638
-0.45277616 1.2117356 -0.22007483
-0.38541117 1.2097032 -0.30501521
-0.63884217 1.2200549 -0.31545421
-0.44839695 1.2174692 -0.37156001
-0.60785699 1.2177788 -0.34729466
-0.31944284 1.2117298 -0.41073158
-0.32746097 1.211589 -0.41461718
-0.98120815 0.8785162 -0.39660522
-0.99156606 0.87902832 -0.39841178
-0.99295974 0.87890106 -0.40421352
-0.99682945 0.87912124 -0.40282318
-0.98342073 0.87860924 -0.40838525
-1.0028982 0.87913668 -0.4073258
-0.9928022 0.87866771 -0.4115454
-0.99122357 0.87873626 -0.41804722
-0.9862954 0.87811959 -0.42572802
-0.97919321 0.87791449 -0.42888415
-0.98333836 0.87766045 -0.42763558
-0.97344911 0.87731427 -0.43669546
-0.95467508 0.87753427 -0.45101669
-1.0174383 0.87946212 -0.43169892
-0.92720813 0.8760978 -0.46515968
-0.92952073 0.87741071 -0.46446946
-1.0047944 0.87823594 -0.43802151
-1.024074 0.87864715 -0.43535295
-0.96770698 0.87712014 -0.45660695
-1.0104097 0.8785454 -0.44104767
-0.93491787 0.87720877 -0.47316614
-0.92647731 0.87799746 -0.48286068
-1.0400344 0.88067842 -0.43987361
-1.015923 0.87880403 -0.45214918
-1.0450528 0.88039601 -0.44282115
-1.0451304 0.8810184 -0.44375536
-0.98813462 0.87696564 -0.46763888
-1.0499729 0.88151336 -0.44585246
-1.0476481 0.88076001 -0.44777134
-0.95247376 0.87668467 -0.48813757
-1.0019425 0.87731206 -0.46855223
-1.0137333 0.87739182 -0.46415383
-1.0231375 0.8792544 -0.46030799
-1.0571997 0.88207781 -0.44927326
-1.0485336 0.8794319 -0.45458889
-0.93071854 0.87729186 -0.502783
-1.0537845 0.88006908 -0.45837241
-1.058913 0.88119173 -0.45590162
-0.97141922 0.87695318 -0.49843153
-1.0234345 0.87794495 -0.47818565
-1.0329815 0.87806159 -0.48059008
-1.0398281 0.87848365 -0.47773311
-0.98503977 0.87623125 -0.50489914
-1.060178 0.87995446 -0.4731949
-1.0512239 0.8791132 -0.4781062
-1.2201898 1.232271 -0.40062076
-1.0220445 0.87728184 -0.49439177
-1.0623136 0.87978256 -0.47732845
-1.0655645 0.88023794 -0.47611234
-1.0603752 0.87914306 -0.47942564
-1.0380714 0.87758934 -0.4898462
-1.0472393 0.87850344 -0.48581362
-0.99517345 0.87573081 -0.51299083
-1.0435072 0.87692833 -0.49272498
-1.0589333 0.87907916 -0.48585024
-1.1952574 1.2320967 -0.4218975
-1.0185404 0.87683517 -0.50561452
-1.2234936 1.2329998 -0.4116199
-1.0814797 0.88034266 -0.4793762
-1.0756289 0.88062894 -0.48250651
-1.0674982 0.87934047 -0.48725167
-1.1958978 1.2325633 -0.42730445
-1.0045189 0.87704253 -0.5190345
-1.0690436 0.87966514 -0.49150494
-1.063131 0.87899709 -0.49511641
-1.1825273 1.2322198 -0.44096002
-1.1840806 1.2326454 -0.44014496
-1.0795295 0.881365 -0.49183354
-1.0550092 0.87855923 -0.50369143
-1.0955682 0.88166583 -0.48857978
-1.0196557 0.87818897 -0.52503407
-1.0362418 0.87771696 -0.5196113
-1.1000793 0.88209653 -0.49137118
-1.1875705 1.2326087 -0.44794041
-1.0810542 0.87858903 -0.50840449
-1.1091943 0.88290304 -0.49727884
-1.1125351 0.88230252 -0.49651626
-1.1056226 0.8814199 -0.50103813
-1.2080156 1.2335693 -0.45021257
-1.0431467 0.87769765 -0.53656578
-1.0809245 0.8792448 -0.51859492
-0.95210212 0.88039333 -0.58085364
-1.0540365 0.87909657 -0.53337955
-1.0693371 0.87883586 -0.52825952
-1.0761292 0.87876976 -0.52593452
-1.0897036 0.8796578 -0.51964492
-1.0947857 0.88104236 -0.51784265
-1.2163004 1.2340589 -0.45959187
-1.2428261 1.2346278 -0.44681314
-1.1193919 0.88234383 -0.50909197
-1.0843347 0.87938517 -0.52701056
-1.102697 0.88057303 -0.51834542
-1.1109087 0.8813591 -0.51413286
-1.0657115 0.87784719 -0.53847665
-1.0789555 0.87907553 -0.53384691
-1.0869539 0.87837708 -0.53107834
-1.2327772 1.2345693 -0.45913881
-1.1175439 0.88177985 -0.52096307
-1.1243399 0.88192385 -0.5217002
-1.1323575 0.8826474 -0.5177204
-1.0765228 0.87916201 -0.54748762
-1.1095182 0.87947458 -0.53123003
-1.1205798 0.88156164 -0.52891809
-1.1045011 0.87920696 -0.53774947
-1.0787407 0.8784188 -0.55194992
-1.0852649 0.87921828 -0.54975975
-1.0532235 0.8787899 -0.56803071
-1.0506934 0.87889159 -0.57287526
-1.0834489 0.87953424 -0.55769771
-1.1952281 1.2343409 -0.49946502
-1.161985 1.2329668 -0.52107722
-1.2480071 1.2347895 -0.47640756
-1.1322707 0.8812843 -0.53841805
-1.2140749 1.2346443 -0.49603081
-1.0530957 0.87962848 -0.58043182
-1.2170426 1.2348919 -0.50251395
-1.2532153 1.2353462 -0.48333153
-1.1261975 0.88250697 -0.55037022
-1.2545649 1.2356639 -0.48645571
-1.0983533 0.88120651 -0.56849581
-1.1250113 0.88148934 -0.55823469
-1.0549897 0.87967527 -0.59941769
-1.104835 0.88111174 -0.57459724
-1.1536849 0.88658327 -0.54895282
-1.0815398 0.87938386 -0.59072673
-1.071876 0.87946433 -0.59825224
-1.1177106 0.88243085 -0.57586217
-1.1330717 0.88453513 -0.57185549
-1.0624807 0.88104141 -0.61240345
-1.0845644 0.88114196 -0.60403621
-1.1186123 0.88506258 -0.5886001
-1.1005027 0.8844679 -0.60617155
-1.0859008 0.88295382 -0.61932611
-1.0830119 0.88360482 -0.62887198
-1.0803804 0.88494205 -0.63491553
-1.0760958 0.8832348 -0.6377452
-1.0846227 0.88529378 -0.6341002
-0.75440371 1.2363518 -0.94272101
-1.2629203 1.2370793 -0.63309503
-0.35645416 1.2071072 -0.26304263
-0.50929844 1.2144635 -0.26938301
-0.56953019 1.2175876 -0.3202903
-0.30120745 1.2079365 -0.43640339
-0.30626646 1.2083377 -0.43774578
-0.63290828 1.2217546 -0.4742156
-0.98421741 0.87869906 -0.39324346
-0.98807424 0.87818009 -0.40763658
-0.99829262 0.87884885 -0.41633812
-0.97100252 0.87741464 -0.43136254
-0.93251622 0.87731284 -0.45772609
-1.0213534 0.8788712 -0.43036225
-0.99915272 0.87683398 -0.44024256
-1.0327106 0.88005418 -0.42988816
-0.92625433 0.87629837 -0.47617468
-1.0348195 0.88057697 -0.43597955
-1.0167001 0.87820125 -0.44502673
-1.0032966 0.87733924 -0.45087579
-0.94758266 0.87691396 -0.47319099
-1.0313346 0.87952238 -0.44438347
-1.0365063 0.87996632 -0.44812924
-0.91241556 0.87540829 -0.49689221
-1.2197684 1.2336985 -0.37458947
-1.0419163 0.87941641 -0.45798409
-0.9855845 0.87696642 -0.48426223
-1.0348294 0.87867981 -0.46771443
-1.0001305 0.87744468 -0.48559657
-1.0465043 0.87955773 -0.46798304
-0.97801882 0.87577808 -0.49710208
-1.0607783 0.88009858 -0.46629179
-0.97782493 0.87656796 -0.50119084
-0.98267978 0.87656093 -0.50033337
-1.0571303 0.87967461 -0.47449267
-1.0485858 0.8788802 -0.47935164
-1.0682164 0.88043207 -0.47495648
-1.1918836 1.2343434 -0.41615844
-1.0197047 0.87722623 -0.51097018
-1.04983 0.87834591 -0.50096929
-1.0597334 0.87885535 -0.49663076
-1.2142828 1.2344627 -0.43103978
-1.0869386 0.8806271 -0.49949759
-1.062651 0.87809527 -0.5116564
-1.0818474 0.87967277 -0.50293833
-1.1000719 0.88160557 -0.49865308
-1.0689338 0.87826008 -0.51412028
-1.0956445 0.88053185 -0.50170124
-1.1919729 1.233997 -0.45394209
-1.2203115 1.2350985 -0.44141579
-1.2117262 1.2355186 -0.44706404
-1.0694948 0.87852466 -0.51882464
-1.1145283 0.88257957 -0.49933779
-1.0566581 0.8783471 -0.52788621
-1.0957943 0.88051933 -0.51170594
-1.0838544 0.87844491 -0.52252048
-1.202329 1.2355626 -0.46474791
-1.063445 0.878398 -0.53511405
-1.1955463 1.2334782 -0.46945876
-1.197904 1.2335154 -0.47425213
-1.2349864 1.2342638 -0.45621386
-1.2507498 1.2372828 -0.45109686
-1.1307338 0.88312989 -0.51335651
-1.1668922 1.2331624 -0.49367797
-1.1857517 1.2356067 -0.48475987
-1.2524672 1.2365152 -0.45402646
-1.1271812 0.88233846 -0.52004647
-1.2527403 1.2361274 -0.45721629
-1.0810243 0.87803155 -0.54653871
-1.0634974 0.87833971 -0.55679828
-1.1377466 0.88282675 -0.52165216
-1.2034569 1.2352732 -0.48750067
-1.098541 0.8801167 -0.54488456
-1.1077222 0.88086265 -0.54013622
-1.0828806 0.8793695 -0.55426019
-1.1354626 0.88232678 -0.53087288
-1.1654633 1.2350812 -0.51514018
-1.0631876 0.87878603 -0.56968427
-1.133634 0.8822071 -0.53312445
-1.1606375 1.234799 -0.51958221
-1.2333428 1.2348049 -0.48778361
-1.0761955 0.8795681 -0.57240409
-1.0789378 0.8792752 -0.57257861
-1.1078556 0.88078839 -0.56093693
-1.1123619 0.88115436 -0.56355286
-1.1443716 0.88443232 -0.54631793
-1.1835881 1.2357312 -0.52630073
-1.1117164 0.88246667 -0.58247566
-1.0937605 0.88151413 -0.59690726
-1.0910883 0.8753463 -0.60364377
-1.0931237 0.88381326 -0.62066466
-1.0871019 0.88406175 -0.62621921
-1.0732818 0.88425153 -0.64212322
-1.0679643 0.88569409 -0.64788651
-0.71384281 1.2317458 -0.90214646
-1.1747414 1.2380829 -0.72815371
-0.47936025 1.212394 -0.29084101
-0.39186609 1.2072536 -0.31377786
-0.61791426 1.2209232 -0.33790189
-0.57227778 1.2197713 -0.40079015
-1.016956 0.87893319 -0.41497853
-0.90766025 0.87617546 -0.49620679
-1.0908031 0.88170546 -0.47883898
-1.0009098 0.87590975 -0.53413838
-0.99496216 0.8790462 -0.55681682
-1.1246045 0.88416749 -0.51034105
-1.1067612 0.87961942 -0.53388196
-1.122856 0.88241363 -0.52802467
-1.099846 0.8807525 -0.53930956
-1.1481738 0.88458794 -0.53047264
-1.1023968 0.88121676 -0.55857706
-1.1509463 1.1921873 -0.54199016
-1.1512026 1.198415 -0.54218006
-1.1509507 1.1605643 -0.54282022
-1.1493887 1.2182244 -0.54435056
-1.1536001 1.0879945 -0.54247278
-1.1533797 1.1028004 -0.54311121
-1.1516343 1.133443 -0.54335052
-1.1552938 0.99132055 -0.54222935
-1.1558243 0.99286455 -0.54235232
-1.1547104 1.0102926 -0.54278493
-1.1543612 1.035767 -0.54304409
-1.1541789 1.047426 -0.54379481
-1.1529289 1.0810328 -0.5442611
-1.1514422 1.1026014 -0.54440808
-1.1560307 0.96718717 -0.54236531
-1.1548038 0.99222976 -0.54382944
-1.1556057 0.96183729 -0.54389817
-1.1522403 1.0515953 -0.54693812
-1.1595882 0.90331948 -0.54272532
-1.1585839 0.91579515 -0.54341125
-1.1573406 0.92488164 -0.54373813
-1.1564399 0.93491369 -0.54428744
-1.1509216 0.9847551 -0.54701835
-1.1511166 0.98595876 -0.54703522
-1.1515551 0.98810178 -0.54732841
-1.1496189 1.0076195 -0.54798478
-1.1495878 1.0182105 -0.54804969
-1.1500356 1.0204037 -0.54833192
-1.1581178 0.90011513 -0.5445168
-1.1572208 0.90859407 -0.54493976
-1.1428279 1.1826273 -0.553734
-1.1558639 0.9027282 -0.546134
-1.1499386 0.97423941 -0.55073947
-1.1458567 1.0133642 -0.55176419
-1.1471821 1.0277697 -0.55216426
-1.1455393 1.085476 -0.55285305
-1.1424848 1.1627163 -0.55482817
-1.1404941 1.2092655 -0.55651248
-1.1550304 0.90483415 -0.5484187
-1.147059 0.97841161 -0.5528937
-1.1451349 1.0136143 -0.55442315
-1.1450537 1.0155602 -0.55442816
-1.13878 1.2205 -0.55848509
-1.1531386 0.90104491 -0.54958463
-1.1451159 0.97531247 -0.55440319
-1.1453034 0.97662729 -0.5544858
-1.1438224 1.0044792 -0.55609119
-1.1433909 1.0109094 -0.55574512
-1.1416137 1.1463426 -0.55855203
-1.1340046 0.88385451 -0.56064487
-1.1491742 0.92428607 -0.55335009
-1.1457068 0.96563822 -0.55594516
-1.1435847 0.97930735 -0.55680609
-1.1425586 0.99066752 -0.55748528
-1.1410048 1.0337751 -0.55835533
-1.1407619 0.98489439 -0.55986989
-1.1403981 0.99205524 -0.55977422
-1.1389711 1.0323998 -0.55976391
-1.1399195 1.0415628 -0.5601396
-1.1462722 0.92420173 -0.55707926
-1.1450452 0.93207347 -0.55779952
-1.1377715 1.0346737 -0.56184947
-1.1383748 1.1101673 -0.5625912
-1.1372645 1.1428325 -0.56309098
-1.1431686 0.93159473 -0.55969489
-1.1362764 0.9991793 -0.56405401
-1.1363914 1.0199018 -0.56388593
-1.1371094 1.054306 -0.56410998
-1.1373726 1.0810357 -0.56419629
-1.1369524 1.1112216 -0.56451553
-1.1333597 1.1677687 -0.56613797
-1.1321293 1.2164212 -0.56837606
-1.1341833 1.0137292 -0.56658757
-1.1350222 1.0187633 -0.56622547
-1.1354544 1.0489517 -0.56610245
-1.134953 1.060605 -0.56573057
-1.0848505 0.87846881 -0.59479612
-1.1263674 0.88265836 -0.57114333
-1.140077 0.93018174 -0.56338632
-1.1401651 0.9315179 -0.56343734
-1.1346623 0.97904068 -0.56692785
-1.1339079 0.98491335 -0.56747693
-1.1341416 0.98634619 -0.56760508
-1.1323593 1.0371947 -0.5679906
-1.1326059 1.04225 -0.56839007
-1.1337342 1.0551388 -0.5683549
-1.1334819 1.0575312 -0.56829745
-1.1337402 1.062843 -0.56831485
-1.1298226 1.216132 -0.57157648
-1.1393733 0.92744249 -0.56499213
-1.1379989 0.93455374 -0.56579125
-1.1338917 0.96769494 -0.56843245
-1.1322032 0.98902893 -0.56982416
-1.1309621 1.0312111 -0.57039279
-1.1303144 1.037926 -0.57018805
-1.1324196 1.0724657 -0.57040101
-1.1316507 1.1213017 -0.57091272
-1.1313865 0.97431117 -0.57097709
-1.1290041 1.0035684 -0.57248503
-1.128704 1.0316155 -0.57260323
-1.1293832 1.1347961 -0.57338852
-1.128216 1.1562746 -0.57351518
-1.1252775 1.2184547 -0.57641768
-1.1378794 0.91144192 -0.56808549
-1.128956 0.9750526 -0.57309079
-1.1277763 0.981659 -0.57361865
-1.1280231 1.0867116 -0.57441014
-1.1260765 1.1627457 -0.57639575
-1.1246388 1.042359 -0.57671994
-1.1266313 1.0658747 -0.57650036
-1.1264597 1.0745649 -0.57635731
-1.1263044 1.0794733 -0.57654494
-1.1263943 1.105896 -0.57665944
-1.1266471 1.1098295 -0.57698953
-1.1259242 1.1361845 -0.57770848
-1.131196 0.92932791 -0.57384169
-1.130767 0.93386799 -0.57385486
-1.1251986 0.97418934 -0.57753199
-1.123559 1.0441855 -0.57913971
-1.1255548 1.0929031 -0.57941228
-1.1202675 1.2192285 -0.58233064
-1.1289505 0.93529886 -0.57646668
-1.1234224 0.97029275 -0.57950395
-1.1233653 0.97536075 -0.57955885
-1.1234902 0.97694671 -0.5798279
-1.1226946 1.0690581 -0.58086193
-1.1221726 1.0909874 -0.58096421
-1.1226752 1.1077054 -0.58118761
-1.1328005 0.89877957 -0.57448709
-1.1239552 0.95729047 -0.58052003
-1.1187719 1.0399159 -0.58332598
-1.12036 1.0625188 -0.58344072
-1.1208752 1.0717447 -0.58330715
-1.120965 1.0765351 -0.58296049
-1.119023 1.1492753 -0.58458567
-1.1194637 0.97463626 -0.5839538
-1.1178499 1.0013371 -0.58571965
-1.1170505 1.0999296 -0.5881142
-1.1168823 1.1032755 -0.58731478
-1.1165352 1.1465511 -0.58920246
-1.1152345 1.159714 -0.58924663
-1.1248897 0.9159196 -0.58247352
-1.1168346 0.96484709 -0.58751798
-1.1164771 0.96689332 -0.58757234
-1.1123475 1.0187082 -0.59003472
-1.1131785 1.0506506 -0.5897004
-1.1110702 1.0201286 -0.59226024
-1.1118119 1.0227959 -0.59225833
-1.1245492 0.89887571 -0.58477587
-1.1117938 0.97349763 -0.59253216
-1.1107874 0.9859913 -0.59353381
-1.1108408 1.0580453 -0.59434134
-1.1106981 1.0715053 -0.59352535
-1.1117119 1.1017997 -0.59418666
-1.1073173 1.1873641 -0.59730834
-1.122242 0.89877099 -0.58662564
-1.1093389 0.98164278 -0.5954175
-1.1078924 0.9956997 -0.59623855
-1.1080092 1.0094392 -0.59652412
-1.1090865 1.0543001 -0.59666389
-1.109224 1.0598509 -0.59645271
-1.1094929 1.0704659 -0.5967719
-1.1110212 1.0902669 -0.59546286
-1.1077046 1.1421888 -0.59812498
-1.1066289 1.0588173 -0.5987367
-1.1190449 0.89907992 -0.59102064
-1.1071656 0.96838844 -0.59910136
-1.1057934 0.98165226 -0.59978712
-1.1035733 1.0149333 -0.60123974
-1.1036954 1.0165786 -0.60105032
-1.104793 1.06264 -0.60074502
-1.1173307 0.89965636 -0.59321642
-1.1056073 0.96178597 -0.60048068
-1.1037714 0.98269844 -0.60232538
-1.1026704 0.98997962 -0.60252702
-1.1015455 1.0186913 -0.60357153
-1.1022513 1.0377009 -0.60356396
-1.1033512 1.0629852 -0.60323036
-1.1037669 1.1154984 -0.60408372
-1.100301 0.99545544 -0.60524446
-1.1012502 0.9992274 -0.60519099
-1.1004292 1.0243928 -0.60551369
-1.1002145 1.0395756 -0.60588479
-1.1003934 1.0490334 -0.60559285
-1.1014802 1.0664151 -0.60561663
-1.096547 1.2155068 -0.61037695
-1.1034377 0.95458692 -0.6041643
-1.0983299 1.0184205 -0.607934
-1.0983706 1.0204298 -0.60786909
-1.0978869 1.0457145 -0.60789412
-1.0993638 1.0830019 -0.60774016
-1.0941154 1.2169027 -0.61319554
-1.1119007 0.8981936 -0.59956437
-1.1066482 0.92518789 -0.60296977
-1.1038026 0.94019681 -0.60498154
-1.0969263 0.9896934 -0.60942197
-1.0971336 1.0451645 -0.61021638
-1.0976138 1.0895463 -0.61042631
-1.0983905 0.96301562 -0.60935336
-1.0938122 1.0117363 -0.61220092
-1.0936923 1.017699 -0.6123814
-1.0937335 1.0211449 -0.61234015
-1.0950385 1.0359211 -0.61208898
-1.0926806 1.028675 -0.61464691
-1.0917666 1.0511187 -0.61460555
-1.093529 1.0600044 -0.61436743
-1.0919333 1.1341088 -0.61594588
-1.0920494 1.1434493 -0.61671227
-1.0897017 1.1605047 -0.61764365
-1.0912836 0.99094701 -0.61603773
-1.0909634 1.032342 -0.61687577
-1.0909007 1.0570236 -0.61671638
-1.0923828 1.0837362 -0.61689776
-1.0910288 1.1099477 -0.61752534
-1.1048582 0.89626354 -0.60810876
-1.0896652 0.98843002 -0.61801904
-1.0884528 1.0011487 -0.61863965
-1.088719 1.0300283 -0.61911947
-1.0898869 1.0321019 -0.61932153
-1.0881295 1.0424123 -0.61904061
-1.089425 1.0633066 -0.61942685
-1.0894995 1.0655739 -0.6193884
-1.0843769 1.2163481 -0.62403876
-1.1017364 0.90072304 -0.61098981
-1.0971135 0.92593217 -0.61419404
-1.0920787 0.95469874 -0.61757123
-1.090207 0.96049571 -0.61823779
-1.0891608 0.97635573 -0.61946875
-1.08755 0.99730027 -0.62082076
-1.0871409 1.0217369 -0.62131101
-1.0870326 1.0444833 -0.62125951
-1.0866915 1.0563926 -0.62184989
-1.0869286 1.0601141 -0.62163264
-1.1226479 1.235714 -0.60154814
-1.1002417 0.89870489 -0.61248469
-1.0903536 0.95225745 -0.61976427
-1.0896176 0.95919138 -0.62049699
-1.0875913 0.97677159 -0.62184769
-1.085561 1.003989 -0.62321091
-1.0850656 1.0333494 -0.6239816
-1.0852818 1.0348283 -0.62393117
-1.0859293 1.081532 -0.62412941
-1.0869118 0.96346378 -0.62320828
-1.0837917 1.0071106 -0.62559038
-1.0835057 1.0129664 -0.62565225
-1.0833902 1.0149792 -0.62559891
-1.0826157 1.0446445 -0.62610614
-1.0837206 1.0664788 -0.6264528
-1.0844125 1.0722342 -0.62642163
-1.0824565 0.99341494 -0.62730306
-1.0816547 0.99977946 -0.6277895
-1.0810513 1.018975 -0.6283235
-1.0814226 1.0223699 -0.62834245
-1.0814686 1.0412695 -0.62842655
-1.0815071 1.0644506 -0.62872863
-1.0816053 1.0661607 -0.62865645
-1.0793076 1.1272004 -0.63072854
-1.0856493 0.94781286 -0.62624192
-1.0842249 0.95498902 -0.626921
-1.0789086 1.0345749 -0.63056946
-1.0788436 1.1032659 -0.63176584
-1.0757821 1.1575415 -0.63499987
-1.0733113 0.88279086 -0.63294667
-1.0782781 1.0021914 -0.63199294
-1.0778596 1.0294876 -0.6324212
-1.0774057 1.0895356 -0.63378382
-1.075177 1.142557 -0.63562715
-1.0736197 1.1524558 -0.63739556
-1.0912216 0.89795268 -0.62383229
-1.0821695 0.9447664 -0.63038391
-1.0786545 0.96782047 -0.63240409
-1.0760452 1.0013146 -0.63427281
-1.0763228 1.0108967 -0.63477159
-1.0764556 1.0126915 -0.63474959
-1.0763899 1.0277778 -0.63484943
-1.0892252 0.8974703 -0.6258927
-1.0771974 0.96979791 -0.63498062
-1.0752409 0.99127096 -0.63634282
-1.0751531 0.99639535 -0.63627762
-1.0733433 1.0218742 -0.63695478
-1.0735434 1.023277 -0.63690138
-1.0730296 1.0866591 -0.63855475
-1.0692769 1.1601071 -0.64213461
-1.0767262 0.95680082 -0.63610756
-1.0755926 0.96876305 -0.63705689
-1.0727549 1.0010442 -0.6388762
-1.0718039 1.0337454 -0.63966411
-1.0712672 1.0917164 -0.64154392
-1.0849776 0.89800948 -0.63090724
-1.077161 0.93896919 -0.63708079
-1.0743735 0.95757091 -0.6385684
-1.0736899 0.96826673 -0.6392979
-1.0699934 1.0277464 -0.64192808
-1.0698687 1.02966 -0.6420272
-1.0710001 1.0313032 -0.64217353
-1.0690272 1.0911132 -0.64377582
-1.0740912 0.94497824 -0.63966054
-1.0741112 0.95100296 -0.64023215
-1.0726868 0.96639138 -0.64151436
-1.0683154 1.0156671 -0.6438911
-1.0681975 1.0361389 -0.6446318
-1.0665628 1.0843625 -0.64616764
-1.0720648 0.95105648 -0.64231592
-1.071223 0.95397115 -0.64274454
-1.069527 0.97457296 -0.64422584
-1.0694629 0.97986978 -0.6448108
-1.0788283 0.89814866 -0.63854402
-1.0701038 0.95218134 -0.64495021
-1.0666562 0.98611695 -0.64743972
-1.0642873 1.0355922 -0.64884466
-1.0604557 1.1180805 -0.65353251
-1.067378 0.88263732 -0.64645344
-1.06581 0.98217666 -0.64949667
-1.0577308 1.1095006 -0.65615952
-1.0502431 1.1741401 -0.66099483
-1.062228 0.99877107 -0.65229386
-1.0625181 0.99985641 -0.65257424
-1.0636308 0.95480984 -0.65238237
-1.0604473 0.99554777 -0.6550734
-1.0603193 0.99774009 -0.65491885
-1.0593426 1.0154361 -0.65585369
-1.0599526 1.0199507 -0.65606993
-1.0687006 0.90512592 -0.64983243
-1.0685564 0.90684724 -0.65004623
-1.0590982 0.98201811 -0.65645123
-1.0582265 0.99942625 -0.65751654
-1.0584356 1.000945 -0.65741789
-1.0571557 1.0119784 -0.65793896
-1.0521588 1.0763829 -0.66155064
-1.0523484 1.0780773 -0.66185445
-1.0678588 0.89728898 -0.65067905
-1.0545757 1.0160609 -0.66079545
-1.0542442 1.0285217 -0.66206473
-1.0533699 1.0340964 -0.66197079
-1.082041 1.2340057 -0.64750898
-1.0656639 0.89937556 -0.65406835
-1.0546906 0.98101234 -0.66210407
-1.0544872 0.98333716 -0.66181493
-1.0634696 0.89569706 -0.65606749
-1.0543985 0.95546359 -0.66211051
-1.0545454 0.93744189 -0.66287583
-1.0430502 0.99417436 -0.67271203
-1.0429202 0.97110498 -0.6737805
-1.0618571 1.2343903 -0.6703496
-1.0720444 1.235761 -0.68708885
-1.0718427 1.2351431 -0.71438533
-1.1373223 1.236228 -0.68066537
-1.1401749 1.237372 -0.67754561
-1.0960542 1.2360998 -0.71380252
-1.1692206 1.2383112 -0.66326255
-1.0607113 1.2360486 -0.74255174
-1.1295273 1.2363366 -0.70203137
-1.1246583 1.2358689 -0.7099995
-1.1604123 1.2379874 -0.68922257
-1.0999 1.2375048 -0.73723143
-1.1319411 1.2378958 -0.72015506
-1.1826041 1.2376237 -0.68999308
-1.1217726 1.2383634 -0.78812808
-1.1417625 1.2386203 -0.78213382
-1.1536204 1.2400898 -0.77928299
-1.1880578 1.2414649 -0.76027048
0 0 0 1 0 0 0 1 0 0 0 1 0 0 0 0 0 1150 1 0 0
