ply
format ascii 1.0
comment PCL generated
element vertex 1134
property float x
property float y
property float z
element camera 1
property float view_px
property float view_py
property float view_pz
property float x_axisx
property float x_axisy
property float x_axisz
property float y_axisx
property float y_axisy
property float y_axisz
property float z_axisx
property float z_axisy
property float z_axisz
property float focal
property float scalex
property float scaley
property float centerx
property float centery
property int viewportx
property int viewporty
property float k1
property float k2
end_header
-0.99412233 0.86617672 -0.50030816
-1.0241189 0.85973424 -0.59982842
-1.0287582 0.86033648 -0.58302909
-1.0300696 0.8605423 -0.55334073
-1.0487307 0.8586241 -0.60043693
-1.0208404 0.86635083 -0.47172508
-1.0393658 0.8631075 -0.50119567
-1.0512998 0.86135685 -0.51921529
-1.0704273 0.85779363 -0.57439625
-1.0767581 0.85833389 -0.55110735
-1.0840542 0.8587954 -0.53533208
-1.087358 0.85884142 -0.53398085
-1.0696311 0.86595154 -0.4662348
-1.1141695 0.85718149 -0.5492239
-1.0879625 0.86482239 -0.47672045
-1.1487253 0.85399359 -0.61600411
-1.1097759 0.86336917 -0.491413
-1.1410911 0.85501051 -0.57171577
-1.1251577 0.85969329 -0.52385849
-1.139389 0.85966945 -0.526766
-1.1708293 0.8583228 -0.54300457
-1.0001944 0.86167437 -0.61540222
-1.0278528 0.85928482 -0.63751572
-1.0382967 0.85973465 -0.54699308
-1.0907149 0.85435331 -0.6375894
-1.0826172 0.85611439 -0.59635669
-1.1195999 0.85402715 -0.60061246
-1.0931658 0.86444104 -0.48051012
-1.1272515 0.8550908 -0.56249452
-1.1113577 0.8626157 -0.4956345
-1.1663696 0.85390854 -0.60664272
-1.1463445 0.85783273 -0.54109597
-1.2606006 1.1953206 -0.56063473
-0.64674777 1.2211415 -0.17655455
-0.49702474 1.2222323 -0.18572639
-0.55177265 1.221825 -0.23012078
-0.68656415 1.2196342 -0.25776699
-0.55018711 1.2200261 -0.27761111
-0.48404142 1.217338 -0.35869405
-0.72657686 1.2142302 -0.37170091
-0.54274118 1.2181125 -0.42392334
-0.69569385 1.2150853 -0.40329599
-1.0500098 0.86815739 -0.43827575
-1.0550712 0.86768848 -0.44261476
-1.0264496 0.86752284 -0.45699883
-1.0410192 0.86685705 -0.45376661
-1.0510356 0.86687857 -0.45096749
-1.0505651 0.86596364 -0.45763025
-1.0445189 0.8657614 -0.46456417
-1.0375766 0.86572474 -0.46750647
-1.041604 0.86535138 -0.46634275
-1.0318806 0.86494416 -0.47495368
-1.0397509 0.86517096 -0.47279057
-1.0516567 0.86491603 -0.46898615
-1.0061212 0.86609775 -0.48479721
-1.0753973 0.86575705 -0.46395463
-1.0533596 0.86461067 -0.47394732
-1.013503 0.86523247 -0.48855338
-1.0273429 0.86467206 -0.48373604
-1.0715605 0.86488444 -0.47204065
-1.0747246 0.8651253 -0.47084174
-0.98467034 0.86594486 -0.50215542
-1.0238829 0.86423731 -0.48878428
-1.0652184 0.86471134 -0.47478738
-1.0623157 0.86417097 -0.47671607
-1.0491233 0.86387014 -0.48243812
-1.0176104 0.86445755 -0.49532875
-1.0802304 0.86469549 -0.47461519
-1.0260489 0.86381584 -0.49411902
-1.0677371 0.86400259 -0.47973919
-1.0615824 0.86365247 -0.48285827
-0.99408603 0.86459112 -0.50967777
-1.0172039 0.86371011 -0.50225222
-1.0244845 0.86357826 -0.49994203
-1.0793432 0.86402702 -0.48054299
-1.0566945 0.86306268 -0.49025229
-1.0966012 0.8646856 -0.47913802
-0.99670476 0.86381322 -0.51526827
-1.084574 0.86381888 -0.48436746
-1.0433067 0.86256796 -0.49998659
-1.051682 0.86233777 -0.49804878
-1.0625277 0.86263138 -0.49421966
-1.0727502 0.86286628 -0.49047208
-0.97923356 0.86412507 -0.52484661
-0.98427117 0.86390054 -0.52315044
-1.1014187 0.86399227 -0.48204753
-1.0959082 0.86381114 -0.48511383
-1.1015091 0.8645246 -0.48298687
-1.0457051 0.86195946 -0.50506735
-1.1062042 0.86463958 -0.48510897
-1.1038872 0.86390722 -0.48689392
-0.99788117 0.86253291 -0.52710688
-1.0103139 0.86264783 -0.52303034
-1.0435081 0.86168116 -0.51084572
-0.98361504 0.86339337 -0.53415972
-1.0108739 0.86228228 -0.52436692
-1.0590986 0.86154783 -0.50616461
-1.0697647 0.86192 -0.50221705
-1.0800797 0.86206537 -0.4984082
-0.96512103 0.86382502 -0.54296309
-1.1131952 0.86462849 -0.48855555
-1.0329144 0.86173457 -0.51879203
-1.1034698 0.8630653 -0.49361697
-0.9607892 0.86431241 -0.54777044
-0.98970443 0.86310476 -0.53823239
-1.0650591 0.86124814 -0.50982404
-1.0685219 0.86134928 -0.50853187
-1.0887055 0.86186552 -0.50099719
-0.99025261 0.86280298 -0.53888679
-0.99513018 0.86219406 -0.53719205
-1.0392448 0.86087507 -0.52256018
-1.108875 0.8626495 -0.49727061
-1.1147249 0.86328679 -0.49494991
-0.94671941 0.86474037 -0.55935735
-1.0590709 0.86091191 -0.51697284
-1.1002055 0.86182439 -0.5015291
-0.97765446 0.86300474 -0.54906654
-1.0274594 0.86144233 -0.53004861
-1.084676 0.86109948 -0.50832725
-1.0944566 0.86144936 -0.50463349
-1.0061985 0.86173028 -0.54015487
-0.99287796 0.8625108 -0.54661983
-1.0155734 0.86132073 -0.53786641
-1.1134322 0.86254036 -0.50032187
-1.0291066 0.86095691 -0.5346036
-1.079841 0.86052257 -0.51582605
-1.0902758 0.86070305 -0.51197141
-1.0932326 0.86089396 -0.51089412
-1.0996116 0.86112624 -0.50835091
-1.0616459 0.85996968 -0.52501178
-1.0584579 0.86018956 -0.52678144
-0.94980687 0.86429614 -0.57105076
-1.0306152 0.86073387 -0.53908837
-1.0550897 0.86047715 -0.53133953
-1.1047978 0.86067694 -0.51125664
-0.97594875 0.86287194 -0.56271195
-0.99543232 0.86183733 -0.55523866
-1.0484017 0.86012357 -0.53425562
-1.0858036 0.85988468 -0.5195061
-1.0890766 0.86002326 -0.51829696
-1.0957781 0.86026955 -0.51565361
-0.9864518 0.86223286 -0.56150597
-1.0367208 0.86024117 -0.54198194
-1.0407553 0.86024821 -0.54128712
-1.0765749 0.85962933 -0.52723569
-1.1156534 0.86098236 -0.51163727
-1.065475 0.85966313 -0.53163832
-1.0908002 0.85957283 -0.52248675
-1.1068574 0.86030513 -0.51621491
-1.2868924 1.1978123 -0.46310189
-0.96724784 0.86332893 -0.57298094
-1.1280719 0.86173701 -0.50965637
-0.99277103 0.86187065 -0.56477726
-1.0704795 0.85937774 -0.53360575
-0.98346096 0.86224025 -0.56991553
-1.0782446 0.85898495 -0.53144729
-1.1176594 0.86046743 -0.51565862
-1.1205219 0.86064267 -0.51450348
-1.0072621 0.8611443 -0.5612576
-1.1150982 0.86012971 -0.51768839
-1.093154 0.8592062 -0.52739769
-1.102856 0.85944772 -0.52358115
-1.1092559 0.85990894 -0.52111053
-0.97392458 0.86295658 -0.57652074
-1.0682781 0.85870552 -0.53956753
-0.98967421 0.861938 -0.57288319
-1.004184 0.86120164 -0.56670415
-1.0088234 0.86094123 -0.56492895
-1.1279329 0.8609761 -0.51629502
-1.1309791 0.86087632 -0.51516092
-1.031513 0.85996538 -0.55703455
-0.99484921 0.86189198 -0.57270616
-1.0141968 0.86067414 -0.56475693
-1.0501798 0.8593803 -0.54938394
-1.0979251 0.85886508 -0.5304026
-1.1078402 0.8592422 -0.52638668
-1.1142272 0.85943884 -0.52381718
-0.98500597 0.86232299 -0.5778808
-1.0002919 0.86147475 -0.57149011
-1.0185549 0.86040229 -0.56412822
-1.0422573 0.859586 -0.55485213
-1.2627714 1.1978918 -0.48326957
-1.0052896 0.86106533 -0.57076651
-1.0738151 0.85857695 -0.54235053
-1.2898835 1.1977252 -0.47380996
-0.97538263 0.86298496 -0.58421534
-1.1354172 0.86087584 -0.51814651
-1.0146797 0.8606717 -0.56868178
-1.0581328 0.85903901 -0.55063969
-1.1305414 0.86033916 -0.52090937
-1.0198803 0.86039102 -0.56784368
-1.1221627 0.85940814 -0.52535588
-0.9719103 0.86248446 -0.589378
-1.0671934 0.8585642 -0.54915631
-1.2633063 1.1980246 -0.48853445
-0.99156249 0.86188906 -0.58176261
-1.0111387 0.86079437 -0.57363212
-1.0260658 0.86002409 -0.5669716
-1.0512563 0.85876244 -0.55688435
-1.0197761 0.8603884 -0.57168001
-1.0600759 0.8586452 -0.55512291
-1.0067655 0.86090136 -0.57866877
-1.0254292 0.86033326 -0.57097536
-1.1049024 0.858208 -0.53739488
-1.1239797 0.85918683 -0.52946717
-1.1269096 0.85928816 -0.52824116
-0.98226613 0.86250764 -0.59042627
-1.1120121 0.85825145 -0.53544593
-1.1181628 0.85860986 -0.53283811
-0.99770635 0.86136943 -0.58466959
-1.0025517 0.86112088 -0.58383346
-1.0172933 0.86035275 -0.57694721
-1.0812652 0.85775673 -0.55034685
-1.1446322 0.86045653 -0.52360779
-1.0083184 0.86090189 -0.58274019
-1.2502581 1.1977205 -0.50154394
-1.2517786 1.1980914 -0.5007996
-1.049091 0.85863596 -0.56618559
-1.1345904 0.85926169 -0.52978021
-1.0274991 0.85963911 -0.57591701
-1.1101407 0.85807288 -0.54099041
-1.0367671 0.85933822 -0.57337803
-1.0583206 0.85833377 -0.56412286
-0.99407524 0.86158687 -0.59292388
-1.0863556 0.85762978 -0.55317801
-1.1498418 0.86003453 -0.52713329
-1.0506614 0.8585583 -0.57058877
-1.1446726 0.8595323 -0.5301972
-1.0379403 0.85904163 -0.57726753
-1.0757725 0.85751241 -0.56090212
-1.108693 0.85734451 -0.54654819
-0.99913287 0.8615799 -0.59611553
-1.0426271 0.85866028 -0.57627553
-1.1189195 0.85770839 -0.54326928
-1.1285061 0.85780668 -0.53915197
-0.98622054 0.86179239 -0.60241681
-1.0916831 0.85723525 -0.55605984
-0.99035573 0.86169386 -0.60129225
-0.99493265 0.86159313 -0.60009807
-1.0344586 0.85910773 -0.58192742
-1.1541923 0.86007309 -0.52992344
-1.1516708 0.85972035 -0.53201842
-1.2549691 1.1974422 -0.50838554
-1.0256137 0.85944259 -0.58806992
-1.061004 0.85798472 -0.57244593
-1.1206894 0.85722786 -0.54739136
-1.1301855 0.85756028 -0.54337698
-1.1331911 0.8578558 -0.54184127
-0.99120873 0.86155903 -0.60567653
-1.0695589 0.85790867 -0.57068777
-1.0894947 0.85718936 -0.56195372
-1.093246 0.85711366 -0.56029552
-1.1153029 0.85693771 -0.55371225
-1.0221173 0.8596983 -0.59624058
-1.0872247 0.85683548 -0.56697273
-1.1346004 0.85746634 -0.54613841
-1.1382345 0.85751098 -0.54458618
-1.0123743 0.86044854 -0.60157377
-1.1629839 0.8600629 -0.53581029
-1.0879271 0.8570112 -0.56993908
-1.1662039 0.85937321 -0.53509283
-1.068087 0.85736048 -0.57975334
-1.1559738 0.85873342 -0.5405789
-1.1584395 0.85897678 -0.53938729
-1.0961018 0.85650915 -0.5682987
-1.1452062 0.85769957 -0.54642791
-1.2744964 1.1970505 -0.51089382
-1.1397456 0.85707754 -0.54972202
-1.0089589 0.86042339 -0.61006474
-1.107812 0.8563109 -0.56506085
-1.0141573 0.86019719 -0.60863864
-1.0691166 0.85727859 -0.58348656
-1.029274 0.8592065 -0.60288137
-1.0936267 0.85653037 -0.57341963
-1.1662152 0.85909224 -0.5405063
-1.0197717 0.85978192 -0.60841119
-1.0341212 0.85882425 -0.60165411
-1.097633 0.85629451 -0.57263917
-1.1350936 0.85661346 -0.55581069
-1.1468136 0.85722464 -0.5504536
-1.0096945 0.8604722 -0.61393106
-1.0251727 0.85923517 -0.60717785
-1.0659398 0.85727006 -0.58816904
-1.0823783 0.85652637 -0.58071727
-1.1090511 0.85605681 -0.56946987
-1.0302135 0.85899729 -0.60684544
-1.116574 0.85594839 -0.5670253
-1.0105481 0.86038011 -0.61721486
-1.0793043 0.85650456 -0.58528936
-1.123589 0.85599625 -0.56489927
-1.0259668 0.85927641 -0.61090165
-1.0670239 0.85701466 -0.59203637
-1.1028669 0.85601825 -0.57544184
-1.1303172 0.85595423 -0.56280625
-1.1336323 0.85627973 -0.56131452
-1.1430514 0.85653323 -0.55696291
-1.1568875 0.85745627 -0.5507645
-1.0160365 0.85998219 -0.61664605
-1.0714083 0.85686338 -0.59090757
-1.1487793 0.8570202 -0.55520117
-1.0759828 0.85663092 -0.58985561
-1.1140721 0.85596651 -0.5720402
-1.0111284 0.8603043 -0.62132639
-1.0364629 0.85839432 -0.6095255
-1.0636203 0.85710949 -0.59678495
-1.0805064 0.85635191 -0.58888012
-1.2822313 1.1965173 -0.52007806
-1.3076878 1.196146 -0.50810671
-1.1281234 0.85589069 -0.56776237
-1.1724174 0.85840917 -0.54736024
-1.0725679 0.85667276 -0.59454775
-1.138283 0.85609376 -0.56399852
-1.1557198 0.85696089 -0.55596524
-1.164323 0.85749048 -0.55204618
-1.0223348 0.85956949 -0.61941725
-1.1192744 0.85559672 -0.57491338
-1.0696207 0.85649264 -0.59942275
-1.0563122 0.8572455 -0.60642016
-1.1055584 0.85552418 -0.58331066
-1.1329556 0.85565197 -0.57050663
-1.1686189 0.857651 -0.55432206
-1.1400959 0.85568017 -0.56814301
-1.1492782 0.85598505 -0.56386608
-1.1664321 0.8572163 -0.55608404
-1.2979293 1.1960071 -0.51986039
-1.0190959 0.85941064 -0.62791324
-1.0434844 0.85796171 -0.61610091
-1.0484135 0.85778338 -0.61456668
-1.0619045 0.85710937 -0.60816258
-1.0872465 0.8557651 -0.59610754
-1.1069392 0.85525459 -0.58672774
-1.1311913 0.85518301 -0.575293
-1.0392998 0.8583101 -0.62020081
-1.07933 0.8561908 -0.6010108
-1.0539833 0.85730869 -0.61439133
-1.0673726 0.85663062 -0.60787117
-1.1181588 0.85501772 -0.58364809
-1.1566021 0.85607857 -0.56536376
-1.1706526 0.85686952 -0.55868328
-1.0496751 0.85746998 -0.6186049
-1.1287941 0.85491437 -0.58056253
-1.0402137 0.8581807 -0.6242094
-1.145836 0.85531425 -0.57440883
-1.1772486 0.85695177 -0.55958128
-1.1851084 0.857503 -0.55589044
-1.0729208 0.85608602 -0.61057013
-1.1727623 0.85666037 -0.56280237
-1.1304067 0.85505712 -0.58364058
-1.16153 0.85590333 -0.56872201
-1.1691898 0.85639143 -0.56496447
-1.0368774 0.8581866 -0.63161641
-1.0984488 0.85483116 -0.6014747
-1.0608549 0.85661888 -0.62106317
-1.0739777 0.85583282 -0.61450297
-1.1734778 0.85635078 -0.566477
-1.0521368 0.85705239 -0.62618679
-1.1569456 0.85522401 -0.57487035
-1.0828267 0.85558408 -0.61212987
-1.0951676 0.85496008 -0.60604066
-1.1318458 0.8546325 -0.58810824
-1.1384484 0.85467738 -0.58598477
-1.0620564 0.85656971 -0.6247043
-1.1075411 0.8546344 -0.6030795
-1.0483981 0.85744536 -0.63361543
-1.0580504 0.85670972 -0.62886584
-1.09662 0.85477322 -0.60969853
-1.1327912 0.85451561 -0.59170949
-1.1155453 0.85432553 -0.60138953
-1.0343854 0.85817945 -0.64327735
-1.0540411 0.8569271 -0.63310391
-1.0890949 0.85494578 -0.61555916
-1.1050354 0.854572 -0.60771114
-1.1463398 0.85453141 -0.5867523
-1.0932571 0.85477632 -0.61440808
-1.1331969 0.85449386 -0.59522903
-1.1126266 0.85425621 -0.60578763
-1.1369928 0.85448468 -0.59360313
-1.2613412 1.195859 -0.55836493
-1.0638098 0.85633218 -0.63149166
-1.0901815 0.85481745 -0.61844808
-1.1018822 0.85460556 -0.61245215
-1.0777609 0.85534632 -0.62556678
-1.1487824 0.85397714 -0.5903855
-1.0819972 0.85520285 -0.62441605
-1.1543208 0.8544699 -0.58836353
-1.1834424 0.8557899 -0.57307404
-1.0738214 0.85550779 -0.62969428
-1.2289507 1.1953857 -0.57887757
-1.3120484 1.1942085 -0.53666437
-1.0557612 0.85668254 -0.6400913
-1.1031862 0.85432303 -0.61592036
-1.1844043 0.855268 -0.57586771
-1.2794164 1.1951479 -0.55523604
-1.1071502 0.85411727 -0.61487585
-1.1787462 0.8550458 -0.57865679
-1.0460428 0.85767585 -0.64825302
-1.0998222 0.85423559 -0.62067658
-1.0519809 0.85724825 -0.64774024
-1.0710958 0.85552961 -0.6378594
-1.1916338 0.8555541 -0.57667696
-1.0845515 0.85470551 -0.63192326
-1.1948509 0.85589886 -0.57543695
-1.0573803 0.85654968 -0.64703476
-1.0668346 0.85607326 -0.64214027
-1.0806092 0.85490853 -0.63632405
-1.0934741 0.85429847 -0.62941331
-1.2821206 1.1947989 -0.56152099
-1.3168594 1.1939707 -0.54340118
-1.1409018 0.85383141 -0.60613638
-1.1784267 0.85470724 -0.58701843
-1.0767633 0.8551687 -0.64041096
-1.1883985 0.8545875 -0.58343458
-1.105822 0.85399181 -0.62691098
-1.1136703 0.85364145 -0.62163401
-1.1245121 0.8536222 -0.61683875
-1.1962049 0.85560864 -0.57965004
-1.1700618 0.85400283 -0.59431398
-1.3180838 1.1939969 -0.54643172
-1.0866412 0.85426956 -0.63851881
-1.0991447 0.85393208 -0.63240242
-1.1104648 0.85366756 -0.62582463
-1.1517409 0.85395026 -0.60408348
-1.059201 0.85648859 -0.653925
-1.1853186 0.85520691 -0.58897215
-1.0740619 0.85520971 -0.64851522
-1.1762835 0.85483128 -0.59491932
-1.060074 0.85639858 -0.65694928
-1.1159322 0.85337651 -0.62793291
-1.103959 0.85366112 -0.6346252
-1.0653213 0.85610563 -0.65649468
-1.0842009 0.85453713 -0.64637196
-1.1089108 0.85355484 -0.63331306
-1.1542217 0.85321975 -0.61127967
-1.2092419 0.85728854 -0.58212805
-1.1571436 0.85376257 -0.61019123
-1.0573139 0.85620415 -0.66459358
-1.0850625 0.85428983 -0.65011793
-1.1202589 0.85333788 -0.63080168
-1.1245316 0.85304165 -0.62882483
-1.1100705 0.85324889 -0.63756776
-1.1985258 0.85761219 -0.59026289
-1.205439 0.85841936 -0.58652377
-1.0714231 0.85541993 -0.6589089
-1.1144576 0.85306513 -0.63608813
-1.1342748 0.85299128 -0.62548292
-1.0667341 0.85568935 -0.66258961
-1.1384983 0.85320944 -0.6242488
-1.1543964 0.85400945 -0.61538082
-1.1644114 0.8536393 -0.61046088
-1.1697286 0.8541224 -0.60827899
-1.1252536 0.85258985 -0.63242596
-1.1112058 0.85298705 -0.64092541
-1.11447 0.85299927 -0.63929814
-1.1615076 0.85381967 -0.61525655
-1.1701217 0.85430437 -0.61165285
-1.0785122 0.85444671 -0.66164374
-1.1112151 0.85290271 -0.64441514
-1.146072 0.85327399 -0.62521613
-1.0789039 0.8549872 -0.66478008
-1.0872463 0.85398769 -0.66003191
-1.1266572 0.85280848 -0.63883036
-1.1427454 0.85338271 -0.63032204
-1.1845983 0.85623324 -0.60822207
-1.0743047 0.85480505 -0.66963011
-1.116442 0.85331392 -0.6458081
-1.1533811 0.85418969 -0.62826735
-1.101822 0.85314363 -0.65802759
-1.137527 0.85323918 -0.63824302
-1.1143615 0.85277367 -0.65333414
-1.1311796 0.85295552 -0.64399999
-1.1708385 0.85629159 -0.62411559
-1.0808876 0.85411161 -0.67434567
-1.1038611 0.85314965 -0.66653776
-1.137922 0.85429257 -0.64756292
-1.1221653 0.85318792 -0.65767384
-1.1528517 0.85463119 -0.64041317
-1.1117148 0.85308069 -0.66462231
-1.1045015 0.85305488 -0.66982859
-1.119734 0.85308963 -0.66237634
-1.0974669 0.85325104 -0.67844617
-1.1016281 0.85333234 -0.67723495
-1.1130697 0.85302627 -0.67027438
-1.1347905 0.85546035 -0.66249651
-1.1028774 0.85337478 -0.68280357
-1.1331235 0.85490322 -0.66779983
-1.1281853 0.85540706 -0.6710062
-1.1073508 0.85262638 -0.68500572
-1.1367067 0.85598236 -0.66738051
-1.1144611 0.85304624 -0.6842829
-0.48345068 1.2203532 -0.36559552
-0.65968287 1.2147903 -0.37557843
-1.0563117 0.8664667 -0.45568725
-1.0241925 0.86633593 -0.46976736
-1.0555748 0.86579549 -0.46127185
-1.0338261 0.8656128 -0.46883145
-1.0474386 0.86483538 -0.47026557
-0.99195188 0.86575758 -0.49472657
-1.0778568 0.86536354 -0.46976247
-1.0450549 0.86377823 -0.48206353
-1.0051198 0.86483461 -0.49640927
-1.0563711 0.86320257 -0.47878966
-1.0597137 0.86403906 -0.47830242
-1.089221 0.86512917 -0.4693414
-1.0770313 0.86455303 -0.47564489
-1.0915884 0.86508226 -0.47528961
-1.0734727 0.86334103 -0.48362797
-1.0602983 0.86284018 -0.48916879
-1.0059481 0.86346442 -0.50982279
-1.087737 0.86385053 -0.48324883
-1.0659021 0.86269939 -0.49277753
-1.0930328 0.86365628 -0.48703682
-1.0418682 0.8620981 -0.50646085
-0.99555832 0.86323285 -0.5255509
-0.97312307 0.86398494 -0.53558475
-1.002066 0.86240345 -0.52622586
-1.2868899 1.1994185 -0.43709582
-0.9877708 0.86320472 -0.53258091
-1.0240923 0.8617419 -0.52089298
-1.0570363 0.86120683 -0.5118643
-1.0978014 0.86237144 -0.49661082
-0.96615201 0.8638348 -0.54714757
-0.97162253 0.8634398 -0.54604506
-1.0261037 0.86136776 -0.52547425
-0.97674137 0.86299747 -0.54534268
-0.96145028 0.86437976 -0.55216992
-1.0430137 0.86109197 -0.5211094
-1.0235023 0.86144525 -0.5314818
-1.0910769 0.8613019 -0.50589758
-1.0405093 0.86092055 -0.52715731
-1.0490681 0.8605575 -0.52477765
-1.0571172 0.86074549 -0.52263522
-0.99828362 0.86207956 -0.54593235
-1.1024404 0.86157012 -0.50637335
-0.96423721 0.86380821 -0.56072414
-1.0341681 0.86076778 -0.53365755
-1.0764186 0.8602578 -0.5171684
-1.0967572 0.86062932 -0.50949627
-1.1160809 0.86154592 -0.50483489
-1.0349805 0.8605994 -0.53755575
-1.0396996 0.86037171 -0.5367775
-1.0784963 0.85980946 -0.52137429
-1.1076553 0.86097157 -0.51006812
-0.99154657 0.86207426 -0.56002557
-1.1126652 0.8607806 -0.51283371
-0.99659425 0.86154473 -0.56010693
-1.1038556 0.8601405 -0.51736343
-0.97212231 0.86330664 -0.5715847
-1.0066656 0.86117548 -0.55712569
-1.0337082 0.86016661 -0.54740477
-0.96225512 0.8636142 -0.57850492
-1.0624551 0.85917795 -0.53724295
-1.1231711 0.86097175 -0.51340574
-1.2596302 1.1991225 -0.47695547
-0.97872233 0.86276114 -0.57497048
-0.9936536 0.86175901 -0.56871969
-0.96946126 0.86307889 -0.58084565
-1.0762655 0.85881466 -0.53733951
-0.96553642 0.86235255 -0.58598554
-1.0278815 0.86022562 -0.5618881
-1.0106068 0.86091089 -0.56978214
-1.1191152 0.85933757 -0.52653033
-1.1131831 0.85862589 -0.53003812
-0.99687308 0.86160064 -0.58063674
-1.0757459 0.85807604 -0.54744023
-1.137511 0.86016804 -0.52269924
-1.0298444 0.8595928 -0.5697946
-1.0436473 0.85901022 -0.56331486
-1.0684141 0.85839558 -0.55263031
-1.1298054 0.85939056 -0.52702534
-1.1051476 0.85827428 -0.53827053
-1.1148382 0.85854656 -0.53424627
-0.99917191 0.8612569 -0.58784795
-1.0742998 0.85797876 -0.55629361
-1.1166799 0.85808069 -0.53819138
-0.98867357 0.86186612 -0.59425324
-1.0784181 0.8576383 -0.55547965
-1.0419952 0.85861081 -0.57242918
-1.2808951 1.197076 -0.49159381
-0.98387587 0.86209321 -0.59865755
-1.0673056 0.85786659 -0.56233853
-0.98935753 0.86188221 -0.59721464
-1.0718193 0.85764152 -0.56148893
-1.0840906 0.85741442 -0.55822504
-1.0641396 0.85787618 -0.56795561
-1.1412638 0.85879111 -0.53751105
-1.1172358 0.8569001 -0.54874212
-1.1271526 0.8572911 -0.54454905
-1.1360267 0.85790026 -0.54061198
-1.0355885 0.85905409 -0.58584797
-1.0742791 0.85752696 -0.56976992
-1.0498165 0.85828876 -0.58298177
-1.1538358 0.85904628 -0.53677177
-1.0906166 0.85681874 -0.56554687
-1.1222965 0.85704523 -0.55137837
-1.1317972 0.85730469 -0.54725492
-1.1487824 0.85858279 -0.53984791
-1.259161 1.1965368 -0.51345462
-1.286538 1.196716 -0.50172347
-1.0795912 0.85720927 -0.57255059
-1.2782606 1.1972862 -0.50710869
-1.1167648 0.85665721 -0.55792713
-1.0137265 0.86000288 -0.60546565
-1.0280988 0.85946476 -0.5990895
-1.1238079 0.85654354 -0.5557766
-1.0334657 0.8588748 -0.59811294
-1.1681087 0.85937494 -0.53786349
-1.038384 0.85859269 -0.59731358
-1.0895079 0.85655558 -0.57417256
-1.1113899 0.85637444 -0.56438702
-1.0779524 0.85689551 -0.58165187
-1.1494831 0.85747015 -0.54929322
-1.0056453 0.86073327 -0.61830503
-1.0356569 0.85867685 -0.60572088
-1.0621701 0.85722697 -0.59313023
-1.1201323 0.8556459 -0.56644529
-1.1368306 0.85628247 -0.5597946
-1.2690006 1.1967994 -0.5240916
-1.0961858 0.85619473 -0.58161259
-1.1178727 0.85567099 -0.57146811
-1.2622155 1.1966736 -0.52933866
-1.1349744 0.85596955 -0.56471533
-1.1317381 0.85578889 -0.56707782
-1.0129639 0.86006081 -0.62517756
-1.1017473 0.85539836 -0.58420157
-1.0329511 0.85864812 -0.6177392
-1.1299855 0.85532266 -0.57184136
-1.2643751 1.1963068 -0.53399867
-1.3000664 1.1957374 -0.51705003
-1.0183585 0.86000186 -0.6273191
-1.0986799 0.85555351 -0.58875394
-1.3155361 1.1963941 -0.51152921
-1.1834105 0.85800773 -0.55144334
-1.2342548 1.1967607 -0.55243927
-1.2528152 1.1965958 -0.54326534
-1.3170975 1.1953645 -0.51432532
-1.058643 0.85707742 -0.61348581
-1.0718888 0.85639369 -0.607059
-1.022521 0.85870695 -0.63437116
-1.1524811 0.85574001 -0.57148862
-1.1800476 0.85730994 -0.55804509
-1.3172915 1.1947752 -0.51737571
-1.0360302 0.85847121 -0.62857962
-1.1131368 0.85460979 -0.59321946
-1.1336843 0.85495669 -0.58302623
-1.1168519 0.85470289 -0.5924747
-1.0906744 0.85553974 -0.60650021
-1.0423031 0.85814065 -0.63140452
-1.1065474 0.85473841 -0.59935755
-1.1279732 0.8545379 -0.58884501
-1.1142148 0.85469389 -0.59666145
-1.1902789 0.85717916 -0.55977196
-1.2697231 1.1950642 -0.54605246
-1.103603 0.85478908 -0.60420799
-1.0669706 0.85642123 -0.62359935
-1.0922767 0.85514468 -0.6107589
-1.1516937 0.8548584 -0.58148026
-1.1607158 0.85555029 -0.57693863
-1.1364836 0.85455424 -0.59027261
-1.1436958 0.8544476 -0.5877313
-1.159551 0.85508442 -0.58229876
-1.1879007 0.85626042 -0.56861436
-1.2328562 1.195405 -0.57240152
-1.116789 0.85421234 -0.60486072
-1.1377068 0.85435706 -0.59431744
-1.1859584 0.85585612 -0.57052261
-1.2281364 1.1951081 -0.57663214
-1.0549759 0.85686165 -0.63720018
-1.1062063 0.85441816 -0.61139178
-1.1270592 0.85467923 -0.60145098
-1.1141766 0.85395497 -0.6094389
-1.0455443 0.85754025 -0.64540195
-1.1221019 0.85411203 -0.6069842
-1.0915581 0.85460341 -0.62296242
-1.1894479 0.8559646 -0.57331151
-1.0413674 0.85743332 -0.64983416
-1.0957274 0.85454941 -0.62176037
-1.1263642 0.85360187 -0.60597599
-1.0659169 0.85618395 -0.63818038
-1.1363417 0.85393852 -0.60250926
-1.297919 1.1945256 -0.54747349
-1.129763 0.85412031 -0.6077522
-1.1323446 0.8537178 -0.60786808
-1.0722729 0.85518712 -0.64166236
-1.1605943 0.85392863 -0.59702319
-1.0538303 0.85678941 -0.65462154
-1.0820302 0.85462302 -0.63972461
-1.0542363 0.85677516 -0.65775865
-1.164996 0.85416156 -0.59980106
-1.1968675 0.85539544 -0.58334553
-1.0646296 0.85595119 -0.65336782
-1.0789191 0.85481787 -0.64701998
-1.0749698 0.85530978 -0.65156257
-1.2052982 0.85677582 -0.58407456
-1.0707573 0.85535985 -0.65571666
-1.1774786 0.85482764 -0.60149592
-1.0630662 0.85571766 -0.66696936
-1.0682193 0.85578138 -0.66644502
-1.0952303 0.85373932 -0.6511488
-1.1041267 0.8530013 -0.6492098
-1.0829791 0.85450321 -0.66122782
-1.0957822 0.85359108 -0.6547001
-1.1640894 0.85426307 -0.6180144
-1.1090704 0.85335308 -0.64867729
-1.0799748 0.85443187 -0.66811109
-1.1465731 0.85368556 -0.63159108
-1.0848893 0.85411072 -0.66725332
-1.1436082 0.84732884 -0.63763613
-1.1440074 0.85349679 -0.63598007
-1.121433 0.85293967 -0.65154517
-1.0857564 0.85436064 -0.67328513
-1.1158534 0.85332447 -0.6594317
-1.0873885 0.85437286 -0.67983848
-1.1381683 0.85412115 -0.65302694
-1.0930382 0.85344195 -0.68200916
-1.1452322 0.85483116 -0.65454894
-1.1398332 0.85473782 -0.66001099
-1.0942791 0.85341662 -0.68585175
-1.1038471 0.85291451 -0.68541068
-1.1263674 0.85507298 -0.67502159
-1.1174958 0.85313052 -0.6804145
-1.1212444 0.85504717 -0.67988002
-0.42994902 1.2268993 -0.33430743
-0.56887996 1.2221622 -0.3455551
-0.70389372 1.2184424 -0.39394149
-0.65930086 1.2154722 -0.45492846
-0.96658206 0.86524856 -0.53120804
-1.1448663 0.86110252 -0.51738966
-1.0556929 0.85841233 -0.56950909
-1.0521762 0.8576082 -0.59142733
-1.1774772 0.85962093 -0.54859072
-1.1581701 0.85646206 -0.56974941
-1.1755242 0.85692585 -0.56560761
-1.1530232 0.85588491 -0.57613641
-1.2001262 0.85746521 -0.56844509
-1.1742313 0.85400963 -0.58436346
-1.1553426 0.85501355 -0.59483856
-1.1920193 0.85543394 -0.57704383
-1.1497114 0.85479283 -0.60132772
-1.1552513 0.85406578 -0.60284483
-1.2171862 1.1521297 -0.59663695
-1.2177112 1.1580625 -0.59716278
-1.2156626 1.1218649 -0.59569526
-1.2168852 1.1769106 -0.60033786
-1.214763 1.0522075 -0.59137863
-1.215259 1.0663332 -0.59281701
-1.2150338 1.0957993 -0.59472108
-1.2118291 0.95919818 -0.58581924
-1.2124116 0.96064478 -0.58603001
-1.2121484 0.97745937 -0.58739877
-1.2130157 1.0019497 -0.58905584
-1.2133667 1.0131396 -0.59042192
-1.2137625 1.0454243 -0.59272099
-1.2133554 1.066192 -0.59403932
-1.2114083 0.93591309 -0.58462411
-1.2113705 0.95999932 -0.58741248
-1.1990535 0.85558212 -0.58494192
-1.2107341 0.93067092 -0.58580911
-1.2116725 1.0169837 -0.59368235
-1.2119077 0.87409371 -0.58149391
-1.2114916 0.88615972 -0.58282864
-1.2107005 0.89497238 -0.58363086
-1.2102803 0.90465957 -0.58470601
-1.2072365 0.95280266 -0.59004337
-1.2074822 0.95394707 -0.5901292
-1.2079983 0.95596999 -0.59053576
-1.2070439 0.97481662 -0.59223104
-1.2075144 0.98499948 -0.59288061
-1.208041 0.98707199 -0.59327883
-1.2103031 0.87100744 -0.58302319
-1.209816 0.87920707 -0.58388996
-1.208774 1.1426315 -0.60739875
-1.1964303 0.85587144 -0.58897465
-1.2082238 0.87355429 -0.58470196
-1.2057526 0.94248736 -0.59305167
-1.2036411 0.98029196 -0.59616923
-1.2055984 0.9940325 -0.59736985
-1.2067369 1.0495336 -0.6012094
-1.2074744 1.1235155 -0.60735893
-1.2077546 1.1680115 -0.61152971
-1.2024037 0.85785711 -0.58762825
-1.207497 0.87546581 -0.58702177
-1.2031344 0.94653088 -0.59533441
-1.2029251 0.9803893 -0.59875011
-1.2029395 0.98226053 -0.59886229
-1.2066339 1.1786778 -0.61403984
-1.2054703 0.87186879 -0.58790988
-1.2010944 0.94355589 -0.59660125
-1.2013419 0.94479245 -0.59675854
-1.2012113 0.97155356 -0.59984517
-1.2010938 0.97779816 -0.59986043
-1.2057984 1.1076208 -0.6100505
-1.1860471 0.85569173 -0.5973925
-1.1944709 0.85547656 -0.59328997
-1.2026665 0.89424205 -0.59279484
-1.2012051 0.93409067 -0.59756511
-1.1997715 0.94732851 -0.59913123
-1.1993122 0.95825845 -0.60041094
-1.1998469 0.99973166 -0.60363168
-1.1972784 0.95264542 -0.60237747
-1.1972651 0.95956254 -0.60267967
-1.1977906 0.99843603 -0.6048969
-1.1991434 1.0071546 -0.60577899
-1.1998197 0.89406198 -0.59636509
-1.1989791 0.90169698 -0.59747994
-1.1967163 1.0005412 -0.6070295
-1.2009056 1.0728786 -0.61193413
-1.201383 1.1042125 -0.6142078
-1.1971204 0.90121758 -0.59926391
-1.1935614 0.96637177 -0.6071713
-1.194659 0.98628926 -0.60816425
-1.1969925 1.0192612 -0.61030102
-1.1985149 1.0449088 -0.611866
-1.199555 1.0738478 -0.61383998
-1.1987884 1.1280446 -0.61849684
-1.1999104 1.1744082 -0.62331921
-1.1922042 0.98028409 -0.61041296
-1.1932631 0.98509568 -0.61035252
-1.1951267 1.014058 -0.61191785
-1.1951796 1.025345 -0.61219448
-1.1356609 0.85342747 -0.62901604
-1.1777774 0.85563546 -0.60695249
-1.1940285 0.89978641 -0.60271794
-1.1941687 0.90107232 -0.60284185
-1.1910256 0.94688475 -0.60881215
-1.1905646 0.95254558 -0.60966206
-1.1908516 0.95391321 -0.60986692
-1.191547 1.0028201 -0.61306012
-1.1920203 1.0076361 -0.61372942
-1.1937199 1.0199664 -0.61442
-1.1935971 1.0222752 -0.61449599
-1.1941042 1.0273464 -0.614811
-1.1976504 1.1740012 -0.62637812
-1.1931936 0.8970921 -0.60410732
-1.1921922 0.90395594 -0.60526341
-1.1897212 0.93593627 -0.60962075
-1.1890916 0.95642692 -0.61214608
-1.1898816 0.99700552 -0.61503482
-1.1895831 1.0034922 -0.61520588
-1.1932569 1.0365161 -0.61734807
-1.1948586 1.0833278 -0.62053728
-1.1875795 0.94226032 -0.61242431
-1.1866605 0.97038865 -0.61549932
-1.1876913 0.99737638 -0.61717194
-1.1932784 1.0961961 -0.6236546
-1.1931926 1.1168284 -0.6249513
-1.193316 1.1761451 -0.63114494
-1.1123964 0.85275775 -0.64616597
-1.1232053 0.85226721 -0.64013594
-1.1783098 0.8551659 -0.60995895
-1.1830137 0.85586911 -0.60759801
-1.1909856 0.88156837 -0.60618174
-1.1852547 0.94295365 -0.61448663
-1.1844087 0.94935638 -0.61535156
-1.1896495 1.0501381 -0.62197477
-1.1914086 1.1229057 -0.62807399
-1.1462084 0.85359389 -0.62851238
-1.1842307 1.0076188 -0.6217128
-1.1872952 1.0300763 -0.62282866
-1.1875401 1.0384334 -0.62316996
-1.1876194 1.0431447 -0.62362152
-1.18898 1.0684539 -0.62519711
-1.1894009 1.0721917 -0.62573391
-1.1899616 1.0974 -0.62787759
-1.185274 0.89881265 -0.6126647
-1.1850613 0.90320808 -0.61292714
-1.181528 0.9420501 -0.61868864
-1.1832378 1.0092828 -0.62414038
-1.1875067 1.0558524 -0.62712991
-1.1884789 1.176713 -0.63686115
-1.1833444 0.90451413 -0.61551082
-1.17959 0.93830174 -0.62035078
-1.1797841 0.94314575 -0.62069261
-1.1799719 0.94465852 -0.62104088
-1.1835779 1.0330625 -0.62718183
-1.1841339 1.0541004 -0.62849486
-1.1854209 1.0700591 -0.6296407
-1.1854174 0.86927921 -0.61158377
-1.1794931 0.92568237 -0.62060887
-1.1783612 1.0051626 -0.62790251
-1.1809845 1.0267448 -0.62928903
-1.1819227 1.0355694 -0.62967712
-1.1822419 1.0401913 -0.62960887
-1.1838629 1.1098232 -0.63518798
-1.1559101 0.85406387 -0.62743503
-1.1693664 0.8558771 -0.6196152
-1.1759276 0.9423728 -0.62485564
-1.175615 0.96799105 -0.62804765
-1.1795225 1.0624756 -0.63584906
-1.1795399 1.0657248 -0.63526326
-1.1812625 1.107044 -0.63947183
-1.1806643 1.1196657 -0.64023358
-1.1784453 0.88574213 -0.62016112
-1.1728855 0.9328832 -0.62771529
-1.1726233 0.93488586 -0.6278764
-1.1710545 0.98474145 -0.63312989
-1.173403 1.0153242 -0.63460815
-1.1584949 0.8547377 -0.62874329
-1.1698906 0.98595423 -0.63535357
-1.170719 0.9885087 -0.63550401
-1.1408799 0.85381395 -0.64013278
-1.177317 0.86922437 -0.62140918
-1.1683626 0.94115227 -0.63298953
-1.1679577 0.95315599 -0.63464999
-1.1714402 1.0222286 -0.63947833
-1.171971 1.0351902 -0.63944274
-1.174394 1.0641243 -0.64177042
-1.1742717 1.1459403 -0.64947021
-1.1496735 0.85430205 -0.63597947
-1.1668711 0.85574299 -0.62665462
-1.1750586 0.86913925 -0.62315929
-1.1663402 0.94892031 -0.63620883
-1.1655862 0.9624663 -0.63777804
-1.1663532 0.97561651 -0.63883126
-1.1695439 1.0185736 -0.64149493
-1.1699442 1.0239037 -0.6416024
-1.1707126 1.0340283 -0.64250517
-1.1731542 1.0530032 -0.64235681
-1.1724328 1.1027079 -0.64777255
-1.1673541 1.0229181 -0.64372367
-1.1674316 0.85620946 -0.62852669
-1.1719283 0.8693614 -0.62737125
-1.1635528 0.93611294 -0.63898009
-1.1628551 0.94885254 -0.64038432
-1.1622658 0.9808377 -0.64364392
-1.1624722 0.98240566 -0.64355743
-1.1657435 1.0265379 -0.64585847
-1.1612651 0.85500282 -0.63281912
-1.1702715 0.86987531 -0.62949997
-1.1617221 0.92977291 -0.63991737
-1.1609157 0.94981891 -0.64286768
-1.1602002 0.95684218 -0.64346629
-1.1604668 0.98439163 -0.64608634
-1.1620524 1.002592 -0.64715517
-1.1643374 1.02678 -0.64826107
-1.1672788 1.0769603 -0.65201229
-1.1581342 0.96206135 -0.64637077
-1.1592385 0.96561283 -0.64654428
-1.1596388 0.98978633 -0.64826936
-1.1601506 1.004338 -0.64947951
-1.1607841 1.0134066 -0.64973164
-1.1626743 1.0299878 -0.65073842
-1.1650969 1.1724263 -0.66352689
-1.1592376 0.92276955 -0.64302868
-1.1572877 0.98402411 -0.65024263
-1.1574205 0.98596656 -0.65029275
-1.1581762 1.0102087 -0.65174115
-1.1613971 1.0458678 -0.65369165
-1.1628053 1.1736594 -0.66630262
-1.1648773 0.86842281 -0.6354571
-1.1609917 0.89443386 -0.64022869
-1.1589143 0.90888041 -0.64299583
-1.1545367 0.95647407 -0.6500296
-1.1573958 1.0095638 -0.65393966
-1.1600016 1.0520443 -0.65663189
-1.1546971 0.93081117 -0.64845431
-1.152554 0.97759467 -0.65393066
-1.1527208 0.98330456 -0.65444136
-1.1529291 0.98659819 -0.65459812
-1.1549102 1.0006912 -0.65520489
-1.1522477 0.99371719 -0.65723509
-1.1524388 1.0152912 -0.65845346
-1.1545731 1.0237104 -0.65873802
-1.1566173 1.0945675 -0.66437995
-1.1571723 1.1034323 -0.66563332
-1.155741 1.1197848 -0.66745853
-1.1490636 0.95757973 -0.65641093
-1.150728 0.99720019 -0.6595692
-1.15187 1.0208325 -0.66081077
-1.1545882 1.0463173 -0.66249442
-1.1545506 1.0714087 -0.6645515
-1.146878 0.85528153 -0.64814425
-1.1578771 0.86647183 -0.64347857
-1.1473603 0.95512474 -0.65815753
-1.1467886 0.96734792 -0.65946996
-1.1484207 0.99495929 -0.66157657
-1.1496326 0.99690777 -0.66189468
-1.1484554 1.0068501 -0.66219819
-1.1507151 1.0267439 -0.66375887
-1.1508946 1.0289252 -0.66384935
-1.1532542 1.1728853 -0.67663765
-1.15502 0.87079561 -0.64646345
-1.1516693 0.89504409 -0.65095478
-1.1481107 0.92268384 -0.65581322
-1.1465516 0.92833698 -0.65676439
-1.1462839 0.94349462 -0.65885329
-1.1457057 0.96357334 -0.66133779
-1.1464758 0.98695922 -0.66319948
-1.1474608 1.0087627 -0.66443747
-1.147687 1.0201705 -0.66567183
-1.1481105 1.0237116 -0.66567761
-1.1536272 1.189486 -0.67981648
-1.1912403 1.1909066 -0.65626585
-1.1534656 0.86884946 -0.64776528
-1.1462927 0.92033637 -0.65775728
-1.1458917 0.92698401 -0.65885293
-1.144753 0.94384426 -0.66114575
-1.1440673 0.96994978 -0.6639967
-1.1449904 0.99804986 -0.66640562
-1.1452695 0.99945891 -0.66644281
-1.1481538 1.0440885 -0.66927308
-1.1434374 0.93108314 -0.66167378
-1.1424839 0.9728744 -0.66644591
-1.1424894 0.9784919 -0.66683793
-1.1424732 0.98043108 -0.66690028
-1.1431394 1.0088621 -0.66906643
-1.1452596 1.0296737 -0.6706419
-1.1462169 1.0351086 -0.67094249
-1.1199107 0.8534134 -0.66755736
-1.140518 0.95973694 -0.66729236
-1.1400329 0.96586233 -0.66811532
-1.1403651 0.98424017 -0.6697219
-1.1408898 0.98745954 -0.66993797
-1.1418523 1.0055254 -0.67109632
-1.1429856 1.0277227 -0.67269385
-1.1431761 1.029332 -0.67272425
-1.1439044 1.0876557 -0.67811543
-1.1098982 0.85310066 -0.67469776
-1.1383337 0.85447425 -0.65831381
-1.1414553 0.91597283 -0.66366684
-1.1404015 0.92289919 -0.66471893
-1.1390278 0.99912256 -0.67275125
-1.1422819 1.0647322 -0.67777359
-1.1419302 1.1165141 -0.68387246
-1.1432407 1.1906823 -0.68959469
-1.1267873 0.85384512 -0.66640025
-1.1368383 0.96810001 -0.67225724
-1.1377445 0.99419934 -0.67422861
-1.1401923 1.0515659 -0.67892843
-1.1406343 1.1021707 -0.68364745
-1.1395733 1.1116314 -0.6858809
-1.1445688 0.86802578 -0.65850067
-1.1378931 0.91302603 -0.66742307
-1.1355567 0.9351756 -0.67066693
-1.1346151 0.96724135 -0.67437392
-1.1353351 0.97636074 -0.67540532
-1.1355485 0.9780761 -0.67548811
-1.1362039 0.99251223 -0.67644572
-1.1425894 0.86757553 -0.66042161
-1.1342146 0.9369936 -0.6732381
-1.1333355 0.95754874 -0.67577171
-1.1334879 0.96247184 -0.67600268
-1.132951 0.98690611 -0.67810088
-1.1332071 0.9882493 -0.67813057
-1.1357772 1.0487375 -0.68331361
-1.1357131 1.1187862 -0.69082004
-1.1331325 0.92451638 -0.67355561
-1.1325766 0.93599671 -0.67514789
-1.1313568 0.96690887 -0.67873818
-1.1320029 0.99818134 -0.68136418
-1.1342813 1.05348 -0.68645006
-1.1384465 0.8680684 -0.66520637
-1.1327049 0.90738529 -0.67344654
-1.1308604 0.92526394 -0.67593169
-1.1306819 0.93550885 -0.67724526
-1.12993 0.99242193 -0.68317336
-1.129899 0.99425292 -0.68337685
-1.1310714 0.99575198 -0.68362063
-1.1320659 1.0528719 -0.68853951
-1.1299797 0.91317821 -0.67623442
-1.1302797 0.91889453 -0.67713755
-1.1296126 0.93362051 -0.67925167
-1.1276981 0.98086423 -0.68434328
-1.128571 1.0003701 -0.68622935
-1.129305 1.0464506 -0.69042832
-1.1206739 0.85364115 -0.67616141
-1.1282667 0.91897506 -0.67910975
-1.1275938 0.92176819 -0.67968482
-1.1269008 0.9414869 -0.68229026
-1.1270838 0.94652599 -0.68315864
-1.1324096 0.86818564 -0.67244428
-1.1264033 0.91999882 -0.6816783
-1.1246517 0.95248228 -0.68601453
-1.124715 0.99981242 -0.69019824
-1.1249353 1.0785577 -0.69932967
-1.1205212 0.8536678 -0.67891788
-1.1315086 0.85605621 -0.67236745
-1.1236153 0.94865835 -0.68774199
-1.1218756 1.0703355 -0.70134753
-1.1178273 1.1319195 -0.70954037
-1.1209166 0.96454686 -0.69135141
-1.1212351 0.96556705 -0.69168293
-1.1079601 0.8529672 -0.68801445
-1.117427 0.85363734 -0.68293822
-1.1201749 0.92249626 -0.68886751
-1.1190021 0.96142191 -0.69380188
-1.1189837 0.96353126 -0.6937806
-1.118885 0.98042148 -0.69569594
-1.1196754 0.98470604 -0.69616657
-1.1228014 0.87487614 -0.68352544
-1.1227319 0.8765313 -0.68382937
-1.1170402 0.9484964 -0.69431353
-1.1170049 0.9651348 -0.6963402
-1.1172756 0.96658617 -0.69633532
-1.1165587 0.97716838 -0.69746369
-1.1148332 1.038646 -0.70458549
-1.1150893 1.0402429 -0.70497233
-1.1039422 1.1397392 -0.72227556
-1.1216223 0.867401 -0.68385077
-1.114242 0.98102129 -0.7004087
-1.1144949 0.99287844 -0.70233828
-1.1139219 0.99825227 -0.7025646
-1.1514804 1.1882755 -0.70006531
-1.1195465 0.86937499 -0.68718064
-1.1126407 0.94753557 -0.69960159
-1.1125628 0.94977069 -0.69946176
-1.1172177 0.86593318 -0.68883067
-1.1111497 0.92316711 -0.698089
-1.1104342 0.90593451 -0.6977399
-1.1018667 0.96023816 -0.71037209
-1.1006547 0.9381597 -0.71001977
-0.92532873 1.1915802 -0.84402049
-1.1317967 1.1880959 -0.72181624
-1.1200745 1.1884469 -0.74636382
-1.0324355 1.1882455 -0.80161047
-1.1413319 1.1878705 -0.73783767
-1.1044979 1.1852258 -0.7722286
-1.1405979 1.1857243 -0.76365727
-1.2038484 1.1851209 -0.73185384
-1.2066795 1.186228 -0.7289542
-1.323085 1.1852841 -0.65283376
-1.1638018 1.1853445 -0.76317483
-1.2346584 1.1862421 -0.71547776
-1.1294053 1.1856906 -0.79022294
-1.044731 1.1878045 -0.8539533
-1.1959666 1.1843601 -0.75206548
-1.0734497 1.1856165 -0.83899117
-1.1911278 1.1837476 -0.75956434
-1.225692 1.1848235 -0.740031
-1.1670337 1.1851507 -0.78529578
-1.1025497 1.1853637 -0.83519077
-1.1979488 1.1846166 -0.76923031
-1.3787183 1.1830974 -0.64120597
-1.2466736 1.1830252 -0.7407096
-1.2057 1.1815382 -0.8271268
0 0 0 1 0 0 0 1 0 0 0 1 0 0 0 0 0 1134 1 0 0
