ply
format ascii 1.0
element vertex 697
property float x
property float y
property float z
property float nx
property float ny
property float nz
property uchar diffuse_red
property uchar diffuse_green
property uchar diffuse_blue
end_header
-0.609048 0.189743 -1.07043 0.271304 -0.734103 -0.622484 150 136 127
-0.608473 0.189806 -1.07008 0.323709 -0.495804 -0.805848 152 137 129
-0.604371 0.190277 -1.06552 -0.255728 -0.771267 -0.582882 145 129 124
-0.603921 0.190368 -1.06522 -0.280845 -0.759221 -0.58712 144 130 124
-1.15687 1.17882 -0.914651 0.14299 -0.359633 -0.922073 196 190 176
-1.15366 1.18059 -0.912836 0.342184 -0.252129 -0.905175 175 166 157
-1.1517 1.18168 -0.910993 0.0929319 -0.694802 -0.713171 175 166 157
-1.14703 1.17678 -0.908565 -0.394387 -0.703541 -0.591175 174 165 156
-0.597391 0.185173 -1.06236 0.0994112 -0.814227 -0.571972 134 126 115
-0.866038 1.07492 -0.699655 0.522818 -0.20349 -0.827801 189 170 155
-0.865435 1.07545 -0.699311 0.474812 -0.447033 -0.7581 188 170 155
-0.867132 1.07674 -0.697051 0.558231 -0.219752 -0.800054 189 170 155
-0.862828 1.07653 -0.695158 0.401623 -0.273801 -0.873918 187 169 155
-0.758421 1.18719 -0.509951 0.512945 -0.465403 -0.721309 122 114 110
-0.757205 1.18783 -0.511886 0.540397 -0.538866 -0.646215 124 114 110
-0.75721 1.18782 -0.511898 0.543747 -0.537616 -0.644445 124 114 110
-1.13942 0.988786 -1.03883 0.597146 -0.619992 -0.508946 37 27 23
-1.13778 0.991639 -1.03623 0.584808 -0.630923 -0.50984 70 57 50
-1.13519 0.992907 -1.03289 0.485701 -0.714772 -0.503186 109 96 83
-1.13284 0.991612 -1.02841 0.435398 -0.83406 -0.338781 113 99 90
-1.13306 0.991905 -1.02864 0.425387 -0.858472 -0.286482 148 132 112
-0.607166 0.180791 -1.07564 -0.442548 -0.86082 -0.251275 150 137 128
-0.606538 0.180547 -1.07533 -0.349203 -0.830621 -0.433734 147 134 125
-0.604675 0.180091 -1.07415 0.466396 -0.291432 -0.83519 144 135 125
-0.608115 0.190553 -1.07003 0.175487 -0.810034 -0.559508 151 134 127
-0.607075 0.189931 -1.06965 0.522187 -0.367115 -0.769771 150 135 128
-0.604175 0.190483 -1.06631 0.296984 -0.766382 -0.569613 148 131 126
-0.604093 0.190521 -1.06595 0.175132 -0.869686 -0.461492 146 130 125
-0.603299 0.190452 -1.06546 0.59545 -0.133025 -0.792302 145 131 125
-1.14688 1.17919 -0.911103 -0.39303 -0.702955 -0.592775 175 165 156
-1.14553 1.18071 -0.908311 0.622706 -0.654612 -0.428626 174 165 156
-1.14361 1.17933 -0.906489 0.652532 -0.533795 -0.537834 174 164 155
-0.596982 0.185806 -1.06209 0.205757 -0.317275 -0.925743 135 127 116
-0.59566 0.184525 -1.06166 0.476458 -0.685806 -0.550143 136 126 115
-0.867472 1.07654 -0.705595 0.55159 -0.551768 -0.62554 175 154 138
-0.867508 1.07634 -0.705744 0.550716 -0.549882 -0.627966 175 154 138
-0.86642 1.07619 -0.702348 0.48647 -0.43065 -0.760189 189 171 156
-0.859918 1.20132 -0.608621 -0.508068 -0.416871 -0.753714 174 161 155
-1.13655 0.992447 -1.03768 0.735006 -0.482669 -0.476232 48 35 32
-1.13498 0.993833 -1.0355 0.725962 -0.561208 -0.397523 82 69 62
-1.13305 0.993295 -1.03116 0.448358 -0.781941 -0.433062 112 99 87
-1.12944 0.992011 -1.02847 0.336848 -0.820323 -0.462173 113 99 91
-1.1287 0.994517 -1.02929 0.303365 -0.892196 -0.334598 113 98 90
-0.606759 0.180452 -1.07638 0.0268115 -0.939911 -0.340366 151 137 129
-0.60626 0.180654 -1.07596 0.0111326 -0.861295 -0.507983 148 135 126
-0.60564 0.180459 -1.0757 -0.0921787 -0.724464 -0.683121 147 135 126
-0.606352 0.190622 -1.0691 0.56521 -0.229707 -0.792321 154 136 130
-0.605901 0.190985 -1.06856 0.28382 -0.724128 -0.628558 157 139 133
-0.603621 0.190759 -1.06575 0.58213 -0.789244 -0.195498 146 131 125
-0.596495 0.185199 -1.06266 0.309981 -0.487678 -0.816139 136 129 118
-0.595756 0.184958 -1.0624 0.722994 -0.0884731 -0.685166 138 130 120
-0.596109 0.185888 -1.06235 0.22632 -0.309702 -0.923506 138 130 120
-0.595718 0.185403 -1.06215 0.460332 -0.221115 -0.859769 138 130 120
-0.595898 0.185469 -1.06195 0.207358 -0.316037 -0.92581 137 130 119
-0.595618 0.184841 -1.06214 0.725906 -0.413152 -0.549878 137 128 118
-0.59416 0.184379 -1.06125 0.787589 -0.194309 -0.584762 139 126 117
-0.593877 0.184356 -1.0611 0.425391 -0.284838 -0.859017 141 127 119
-0.863815 1.08247 -0.700692 0.496079 -0.421944 -0.75886 187 170 156
-0.859819 1.08463 -0.693013 0.324215 -0.188878 -0.926936 185 168 154
-0.855321 1.08459 -0.691462 0.707311 -0.337293 -0.621244 184 167 153
-0.856635 1.08428 -0.689721 0.705778 -0.333745 -0.624894 184 167 153
-1.13081 0.996235 -1.03364 0.481034 -0.838968 -0.25444 105 92 85
-1.13034 0.99448 -1.03181 0.333863 -0.819734 -0.465372 111 97 89
-0.604979 0.180326 -1.07528 0.263394 -0.636133 -0.72523 148 137 126
-0.604511 0.180542 -1.07471 0.438097 -0.534141 -0.723025 146 136 124
-0.607882 0.190112 -1.07191 0.550925 -0.833329 -0.0452223 154 137 130
-0.599265 0.175706 -1.07314 0.71304 -0.100692 -0.693855 139 129 118
-0.607502 0.190795 -1.07072 0.529627 -0.829923 -0.175279 154 136 129
-0.598824 0.176409 -1.07233 0.685651 -0.103194 -0.720579 140 130 119
-0.606705 0.191179 -1.06968 0.788423 -0.38631 -0.478699 152 135 128
-0.60607 0.191178 -1.06866 0.185244 -0.74333 -0.642763 156 138 132
-0.605204 0.190837 -1.06816 0.16395 -0.723643 -0.670419 157 139 133
-0.604206 0.191163 -1.06746 0.369801 -0.913749 -0.168257 155 137 131
-0.604218 0.191129 -1.067 0.44618 -0.892561 -0.0652521 152 134 128
-0.603514 0.191076 -1.06653 0.0534325 -0.869862 -0.490393 148 132 128
-0.603103 0.190551 -1.06635 -0.00525209 -0.883893 -0.467659 147 132 125
-0.595833 0.185813 -1.06263 0.646517 -0.107503 -0.755288 139 131 121
-0.595159 0.185569 -1.06165 0.6148 -0.357819 -0.702841 135 126 116
-0.595245 0.185833 -1.0617 0.204572 -0.353275 -0.912879 136 127 117
-0.594391 0.185299 -1.06141 0.149868 -0.345468 -0.926386 135 125 116
-0.929002 1.03556 -0.800697 0.724665 -0.330913 -0.604448 186 164 144
-0.869354 1.0808 -0.710539 0.706374 -0.342968 -0.6192 189 171 158
-0.866976 1.07819 -0.709575 0.743516 -0.372664 -0.555253 187 171 158
-0.86464 1.07964 -0.705441 0.782492 -0.432079 -0.448345 187 171 158
-0.856895 1.09195 -0.691288 0.740631 -0.375766 -0.557015 184 168 153
-0.854985 1.09734 -0.685823 0.757757 -0.405308 -0.5114 184 170 164
-0.870796 1.20642 -0.626536 -0.353891 -0.872523 0.336846 159 144 130
-0.865441 1.20201 -0.624309 -0.687573 -0.624611 -0.370275 157 143 128
-0.860043 1.2041 -0.613411 0.339842 -0.84869 -0.405257 137 127 122
-0.856898 1.20351 -0.611298 -0.1314 -0.600633 -0.788653 160 150 145
-1.2188 0.957991 -1.15119 -0.249485 -0.953183 0.170877 9 11 10
-1.21383 0.952149 -1.1505 -0.383325 -0.906318 0.177901 8 12 9
-1.25763 1.14194 -1.06408 -0.391276 -0.898343 -0.199708 85 79 54
-1.13309 0.996227 -1.03914 0.332869 -0.940943 -0.0618397 114 105 88
-1.1336 0.995341 -1.03906 0.401805 -0.830346 -0.386107 38 25 23
-1.13032 0.996259 -1.03629 0.313229 -0.87598 0.366805 117 103 84
-0.605436 0.180682 -1.07632 -0.184258 -0.704551 -0.685315 148 136 127
-0.60389 0.180999 -1.07488 0.265526 -0.397983 -0.878126 144 135 124
-0.599698 0.176039 -1.07399 0.792163 -0.0577392 -0.607572 142 130 117
-0.598611 0.176246 -1.0724 0.663357 -0.300044 -0.685516 140 130 119
-0.597919 0.176853 -1.07159 0.707233 -0.255606 -0.659156 138 129 119
-0.59794 0.176666 -1.07158 0.822971 -0.350644 -0.446954 138 128 119
-0.597899 0.176711 -1.07154 0.732943 -0.241535 -0.635968 138 128 119
-0.60594 0.191633 -1.06922 0.390639 -0.629334 -0.671818 154 137 130
-0.605174 0.191365 -1.06879 0.175609 -0.80428 -0.56771 155 138 131
-0.604402 0.191088 -1.06841 -0.181318 -0.960234 -0.212309 156 138 132
-0.604374 0.191144 -1.06836 -0.286163 -0.917898 -0.274907 156 138 132
-0.595258 0.186366 -1.06225 0.245591 -0.698225 -0.672434 139 129 121
-0.595192 0.186429 -1.06219 0.201318 -0.729373 -0.653825 139 129 121
-0.59459 0.186367 -1.06182 0.153976 -0.556737 -0.816294 134 124 116
-0.593278 0.184906 -1.06133 0.668966 -0.431713 -0.605069 142 127 120
-0.868048 1.08072 -0.712372 0.751447 -0.389811 -0.532329 189 172 158
-0.866397 1.0906 -0.707262 0.790189 -0.530248 -0.307307 189 172 159
-0.854161 1.1053 -0.681858 0.71398 -0.34256 -0.610644 183 169 162
-0.862219 1.20044 -0.626159 -0.654371 -0.694624 -0.298826 142 132 126
-0.866931 1.20642 -0.623798 -0.465692 -0.551232 -0.692296 168 149 130
-0.861256 1.20185 -0.624801 0.0855018 -0.922446 -0.376542 157 143 128
-0.728891 1.20914 -0.487199 -0.169384 -0.816271 -0.552278 154 141 134
-1.13093 0.997221 -1.04045 0.500608 -0.652958 0.568364 30 22 16
-0.5987 0.177965 -1.0723 0.716745 -0.196668 -0.669028 142 130 119
-0.598535 0.178025 -1.07222 0.733134 -0.248322 -0.633128 141 130 119
-0.602724 0.191407 -1.0668 0.191408 -0.788274 -0.584797 150 135 128
-0.593825 0.186029 -1.06162 0.46997 -0.287633 -0.834503 137 125 117
-0.593613 0.185598 -1.06157 0.261028 -0.286008 -0.921989 139 125 117
-0.993624 1.19966 -0.763222 -0.584675 -0.678784 -0.444306 198 188 175
-0.868195 1.091 -0.709788 0.788822 -0.456416 -0.411635 190 172 159
-0.8641 1.093 -0.707806 0.407388 -0.183487 -0.894633 189 171 158
-0.853446 1.09898 -0.693 0.618072 -0.565766 -0.545798 185 168 154
-0.853704 1.10826 -0.686594 0.732797 -0.367144 -0.572899 185 171 165
-0.852345 1.10901 -0.681864 0.720477 -0.351658 -0.597704 184 166 152
-1.25229 1.14318 -1.06411 0.544426 -0.823828 0.157819 15 15 12
-1.12749 0.997114 -1.03937 0.360579 -0.903123 -0.233134 129 114 89
-1.12566 0.99696 -1.03696 0.513005 -0.778517 -0.361576 55 43 36
-1.12538 0.998737 -1.03727 0.309414 -0.580616 0.753092 145 127 102
-1.12294 1.00029 -1.03436 0.369777 -0.907504 0.199249 97 83 76
-1.12205 1.00167 -1.03313 0.510231 -0.676591 0.530932 107 93 85
-1.11615 1.00249 -1.02681 -0.249041 -0.701055 -0.668206 150 133 113
-0.603446 0.181748 -1.07503 -0.457445 -0.831892 -0.314165 147 136 125
-0.600659 0.179366 -1.07423 0.00587267 -0.503959 -0.863708 146 133 124
-0.597393 0.177608 -1.07158 0.642442 -0.380924 -0.664955 139 129 118
-0.59669 0.177949 -1.07085 0.0107923 -0.999931 -0.00467947 138 127 118
-0.603438 0.19103 -1.069 -0.247209 -0.924279 -0.290853 155 137 130
-0.603475 0.191041 -1.06896 -0.285859 -0.917518 -0.276488 155 137 130
-0.595049 0.186446 -1.06309 -0.00355065 -0.864646 -0.502369 141 129 123
-0.594636 0.186926 -1.06259 0.0136595 -0.855724 -0.517252 139 127 121
-0.594138 0.187254 -1.0621 0.187825 -0.663097 -0.724586 135 123 118
-0.593976 0.186982 -1.06193 0.0961456 -0.61819 -0.780126 135 122 116
-0.592363 0.185355 -1.06141 0.132485 -0.990946 0.0217426 138 125 116
-1.06928 1.10599 -0.908714 0.303626 -0.632822 0.712284 189 169 139
-0.990768 1.19884 -0.762523 -0.604953 -0.70859 -0.363225 197 188 175
-0.990387 1.19804 -0.764939 -0.58177 -0.678349 -0.44876 182 174 162
-0.982068 1.18534 -0.765514 -0.38843 -0.831286 -0.397601 142 138 128
-0.979732 1.18544 -0.764006 -0.326329 -0.813871 -0.480753 156 147 132
-0.979001 1.18901 -0.761507 -0.48247 -0.726388 -0.489474 157 147 132
-0.978936 1.18886 -0.761551 -0.475462 -0.737235 -0.480021 157 147 132
-0.852292 1.10845 -0.688372 0.734962 -0.372046 -0.566933 185 170 165
-0.842025 1.20254 -0.611345 0.277482 -0.960731 -0.000431567 136 126 122
-1.20798 0.936392 -1.16616 -0.182589 -0.737952 0.649683 7 12 9
-1.12327 1.00007 -1.03622 0.368667 -0.907141 0.202927 116 101 83
-0.604105 0.182518 -1.07625 0.227982 -0.901572 -0.367685 150 138 131
-0.599983 0.179154 -1.07398 0.790919 -0.521413 -0.320275 146 132 125
-0.599943 0.179293 -1.07371 0.831291 -0.394583 -0.391483 146 132 125
-0.599112 0.17938 -1.07275 0.395613 -0.550613 -0.735061 146 133 124
-0.598442 0.179266 -1.07224 -0.103028 -0.926433 -0.362088 140 132 120
-0.598186 0.179318 -1.07218 0.297872 -0.909078 -0.291288 140 131 120
-0.594787 0.186416 -1.06396 -0.13108 -0.989422 0.0621469 143 130 125
-1.12152 1.18496 -0.908422 0.497332 -0.341837 -0.797376 196 190 175
-1.11932 1.18657 -0.908385 0.373842 -0.254225 -0.89197 195 190 175
-1.11939 1.18768 -0.908179 0.631396 -0.482726 -0.60689 195 190 175
-0.591945 0.185162 -1.06155 -0.519858 -0.853175 -0.0428863 137 125 116
-0.590353 0.185305 -1.0604 -0.351647 -0.672569 -0.651149 137 124 117
-1.09116 1.19301 -0.874432 0.926599 -0.309894 0.213028 202 193 180
-0.991491 1.20352 -0.766809 -0.496963 -0.589819 -0.636507 202 186 165
-0.9802 1.18881 -0.766636 -0.247075 -0.774668 -0.582103 142 138 128
-0.981544 1.18626 -0.768804 -0.235481 -0.786065 -0.571533 141 138 127
-0.979993 1.18879 -0.766181 -0.422416 -0.526747 -0.737633 185 176 166
-0.962915 1.17518 -0.757941 -0.066984 -0.956377 0.284352 178 161 145
-0.956219 1.17459 -0.751434 -0.155083 -0.920233 -0.359334 143 136 127
-0.863658 1.102 -0.708943 0.353498 -0.114218 -0.928436 189 174 168
-0.861487 1.09753 -0.707423 0.357675 -0.150056 -0.921711 188 170 156
-0.855984 1.10439 -0.69688 0.506448 -0.572879 -0.644453 186 169 155
-0.853707 1.10254 -0.695463 0.617212 -0.489966 -0.615615 185 168 154
-0.850873 1.10864 -0.690136 0.735711 -0.375661 -0.563567 185 170 165
-0.725463 1.21298 -0.491359 -0.556005 -0.598761 -0.576493 159 144 137
-1.2039 0.934356 -1.16761 -0.246784 -0.767811 0.591239 10 11 12
-0.603663 0.18249 -1.07601 -0.426936 -0.806998 -0.40802 151 139 132
-0.600707 0.180172 -1.07472 -0.0652475 -0.566161 -0.821708 145 132 124
-0.599853 0.179705 -1.07445 0.610789 -0.491445 -0.620821 143 131 124
-0.59986 0.17963 -1.07452 0.714001 -0.601489 -0.358347 143 131 124
-0.599208 0.179958 -1.07373 -0.0709154 -0.992344 -0.10112 142 132 125
-0.599231 0.180057 -1.07344 0.619673 -0.750523 -0.229609 143 132 125
-0.59844 0.17997 -1.07277 0.288821 -0.699562 -0.653602 142 131 124
-0.594555 0.186681 -1.06419 -0.53201 -0.844221 -0.0652345 143 129 126
-1.11545 1.18499 -0.907613 -0.201422 -0.600379 -0.773934 194 189 174
-1.08873 1.18388 -0.881984 0.926561 -0.310288 0.212617 203 193 181
-1.08797 1.18185 -0.882824 0.900796 -0.346317 0.261974 203 193 181
-1.08858 1.19798 -0.874803 0.897458 -0.338108 0.283289 201 193 178
-0.960747 1.17516 -0.760402 0.386015 -0.921595 -0.0406816 179 162 146
-0.960481 1.17535 -0.760161 0.408083 -0.910017 -0.0730588 179 161 145
-0.953736 1.17384 -0.753799 -0.266164 -0.962464 -0.0531106 183 174 164
-0.859953 1.10602 -0.704776 0.337545 -0.214451 -0.916556 188 171 155
-0.857134 1.11597 -0.695256 0.617571 -0.271766 -0.738071 188 170 154
-0.853565 1.10601 -0.697173 0.729424 -0.36742 -0.577012 186 169 155
-0.854312 1.11411 -0.694043 0.696858 -0.335971 -0.63365 172 151 134
-0.849499 1.10891 -0.691871 0.713035 -0.351734 -0.606518 185 168 153
-0.839353 1.20066 -0.621557 0.0332986 -0.975765 0.216274 159 139 122
-0.724626 1.2153 -0.495312 0.455635 -0.651217 -0.606887 164 147 139
-0.720935 1.21359 -0.493371 -0.0441986 -0.968085 -0.246694 163 147 139
-1.2011 0.934019 -1.16921 -0.314206 -0.883148 0.348316 10 11 10
-1.11752 0.999453 -1.04029 0.521154 -0.82118 0.232512 125 108 87
-0.591269 0.184538 -1.06306 -0.539396 -0.828491 -0.150516 139 126 118
-0.59108 0.184465 -1.0629 -0.537901 -0.840504 -0.0649205 139 126 117
-0.590514 0.184597 -1.06236 -0.387048 -0.885187 -0.258143 138 125 118
-0.589444 0.185042 -1.06111 -0.510331 -0.850305 -0.128621 139 125 120
-1.08857 1.19408 -0.880191 0.922116 -0.320604 0.216601 203 193 179
-1.08927 1.1971 -0.878975 0.899971 -0.333489 0.28078 202 193 179
-1.06783 1.18401 -0.866195 0.344374 -0.223434 -0.911858 200 192 178
-1.0708 1.1884 -0.863886 0.343781 -0.222416 -0.91233 200 192 178
-0.9793 1.19279 -0.769807 0.218388 -0.421695 -0.880046 183 175 163
-0.977033 1.19165 -0.768458 0.347106 -0.718221 -0.603055 142 138 127
-0.972946 1.19143 -0.763497 0.463916 -0.322686 -0.825018 187 178 167
-0.950011 1.17112 -0.754845 0.078477 -0.99338 0.0838903 160 147 142
-0.853182 1.11415 -0.695801 0.680989 -0.321037 -0.658171 187 172 164
-0.850594 1.11159 -0.694801 0.681479 -0.322624 -0.656887 171 150 132
-0.73345 1.20929 -0.512646 -0.0888526 -0.737806 -0.66914 163 149 141
-0.724351 1.21716 -0.49793 -0.370701 -0.782325 -0.500548 163 147 139
-1.19368 1.04353 -1.09244 -0.203673 -0.812597 0.546081 111 105 83
-1.19676 1.04616 -1.09359 -0.216704 -0.77893 0.588478 111 103 81
-1.19188 1.04155 -1.09141 -0.19783 -0.766182 0.611415 82 77 62
-0.590434 0.184333 -1.0627 0.491129 -0.781502 -0.384769 138 125 118
-0.589771 0.184669 -1.0624 0.327403 -0.695979 -0.639078 140 127 120
-1.08903 1.19223 -0.884746 0.95771 -0.0869553 -0.27428 201 192 178
-1.08855 1.20388 -0.877626 0.942789 -0.281169 0.179144 202 194 179
-1.04595 1.17809 -0.853489 -0.504611 -0.692304 -0.515832 212 198 176
-0.984068 1.19506 -0.777255 0.15634 -0.617477 -0.770895 157 147 130
-0.9808 1.1925 -0.776609 0.236757 -0.661429 -0.711659 154 146 131
-0.977118 1.19355 -0.771065 0.471694 -0.595103 -0.650659 183 174 164
-0.977388 1.19485 -0.771736 0.524429 -0.846202 -0.0944302 189 176 159
-0.973618 1.19518 -0.767997 0.0760471 -0.809563 -0.582087 143 139 129
-0.972943 1.19408 -0.766152 -0.185681 -0.697042 -0.692571 187 178 167
-0.972943 1.19408 -0.766152 -0.185681 -0.697042 -0.692571 187 178 167
-0.760379 1.16469 -0.575199 0.386379 -0.718908 -0.577825 166 153 145
-0.747528 1.15866 -0.5676 0.259265 -0.62717 -0.734465 165 152 144
-0.734088 1.21156 -0.515342 -0.00395 -0.505419 -0.862865 164 150 142
-0.620367 1.1664 -0.432518 -0.0839051 -0.519108 -0.850581 128 112 95
-1.19618 1.04502 -1.09691 -0.185752 -0.760178 0.622596 110 103 81
-1.19131 1.04149 -1.09308 -0.252274 -0.770793 0.58501 80 77 61
-1.19262 1.04437 -1.09501 -0.171456 -0.807522 0.564368 110 104 82
-1.19106 1.04239 -1.09278 -0.169706 -0.813877 0.555702 80 77 61
-1.18914 1.04081 -1.0921 -0.205502 -0.779361 0.591917 81 77 62
-1.19101 1.04246 -1.09307 -0.159243 -0.847151 0.50693 80 77 61
-1.1886 1.04238 -1.09135 -0.233606 -0.775225 0.586902 82 78 62
-0.598115 0.179922 -1.07436 -0.0471711 -0.997051 0.0605255 142 130 126
-0.593432 0.188045 -1.0645 0.360139 -0.251925 -0.898239 141 127 125
-0.590819 0.184294 -1.06403 -0.206266 -0.898471 -0.387562 143 129 122
-0.590635 0.184361 -1.06418 0.223808 -0.971087 -0.0830713 144 129 123
-0.590147 0.1842 -1.06356 -0.357154 -0.885427 -0.297424 143 129 121
-0.589604 0.184382 -1.06302 0.247595 -0.473241 -0.845423 142 129 121
-0.589714 0.184578 -1.06302 0.0431665 -0.965659 -0.256202 142 129 121
-1.08966 1.19953 -0.884979 0.588965 -0.80755 0.0313542 201 193 178
-0.630613 0.299821 -1.0265 0.815495 -0.0743976 -0.573963 161 145 141
-0.631346 0.302182 -1.02561 0.58466 -0.122155 -0.802029 163 146 143
-0.982219 1.19864 -0.779219 -0.44958 -0.832628 -0.323431 200 191 179
-0.983391 1.19557 -0.780516 0.944132 -0.144793 -0.296056 201 190 178
-0.979465 1.19627 -0.779806 -0.613449 -0.787203 -0.0631836 192 179 162
-0.981018 1.19653 -0.778071 0.825115 -0.38362 -0.414753 202 187 168
-0.977288 1.19556 -0.77753 0.506825 -0.769897 -0.387796 190 178 161
-0.975373 1.1959 -0.774733 0.523413 -0.79732 -0.300531 189 177 160
-0.974665 1.1966 -0.774714 0.437428 -0.817411 -0.374828 154 147 132
-0.974548 1.19562 -0.771291 0.626809 -0.657079 -0.418758 189 177 160
-0.97297 1.19593 -0.772577 0.630638 -0.682441 -0.369555 183 176 165
-0.969135 1.19268 -0.769791 -0.243939 -0.419672 -0.874282 186 177 167
-0.971961 1.19622 -0.769451 -0.109424 -0.653008 -0.749405 185 176 166
-0.814028 0.96318 -0.76783 -0.205461 -0.891295 0.404203 169 154 143
-0.812304 1.07081 -0.692135 -0.0835588 -0.782752 -0.616698 163 145 127
-0.751403 1.16094 -0.570798 0.332131 -0.594029 -0.732679 166 153 144
-0.733794 1.21382 -0.517944 -0.147592 -0.846415 -0.511662 164 150 142
-0.734612 1.21852 -0.516419 0.387448 -0.248327 -0.887816 164 150 143
-0.623485 1.16815 -0.437863 -0.0497054 -0.607833 -0.792508 133 115 92
-0.617016 1.16636 -0.434437 -0.0401579 -0.665296 -0.745499 125 111 94
-1.1121 1.00452 -1.04433 0.311188 -0.834912 -0.453965 27 20 17
-1.09918 1.0138 -1.02443 -0.152624 -0.968587 -0.196332 148 131 106
-1.18787 1.18052 -1.00145 0.0858154 -0.962004 -0.2592 185 176 165
-0.591612 0.18332 -1.06603 0.777852 -0.554113 -0.296487 143 129 122
-0.590475 0.184269 -1.06418 -0.30373 -0.894559 -0.327891 144 130 124
-0.592034 0.189065 -1.06293 0.626207 -0.69413 -0.355032 140 128 123
-0.58886 0.184861 -1.06262 0.612313 -0.737814 -0.284082 141 128 120
-0.634471 0.305697 -1.02798 0.836625 -0.529735 -0.139425 166 149 144
-0.632643 0.305865 -1.02615 0.354134 -0.756733 -0.549495 166 148 145
-0.631024 0.303672 -1.02559 0.575391 -0.125428 -0.808203 165 147 144
-0.629466 0.303111 -1.02481 0.442851 -0.816294 -0.370875 162 147 143
-0.974849 1.19834 -0.777055 0.493418 -0.210296 -0.843987 198 190 178
-0.973888 1.19882 -0.776669 0.228664 -0.406079 -0.884767 190 179 162
-0.973363 1.19603 -0.775765 0.348719 -0.922815 -0.163729 190 178 161
-0.965304 1.19104 -0.774105 -0.0775476 -0.350536 -0.933333 161 148 142
-0.967062 1.19562 -0.772242 -0.441777 -0.816545 -0.371601 161 148 143
-0.817412 0.960876 -0.776756 -0.0247162 -0.948191 0.316737 156 142 128
-0.812342 0.965221 -0.769526 -0.00971335 -0.952514 0.30434 169 155 143
-0.805871 0.969637 -0.759853 -0.144479 -0.91521 0.376186 167 154 141
-0.810699 1.07526 -0.692733 0.125164 -0.676394 -0.725827 163 145 127
-0.80931 1.07587 -0.691789 -0.325733 -0.65467 -0.682133 163 145 126
-0.777883 0.979077 -0.722996 0.456117 -0.824801 -0.334155 159 146 133
-0.756545 1.1676 -0.576157 0.536475 -0.745357 -0.395775 167 154 145
-0.753175 1.16697 -0.575511 0.536709 -0.740439 -0.40459 167 154 145
-0.745076 1.16255 -0.570941 0.497475 -0.819858 -0.283463 165 152 142
-0.742447 1.16097 -0.569157 0.684488 -0.369992 -0.628158 164 153 142
-0.731519 1.21156 -0.521006 -0.196127 -0.978222 0.0679432 164 150 142
-0.620061 1.16819 -0.439772 -0.121066 -0.45573 -0.881847 133 115 93
-1.17707 1.04306 -1.08776 -0.187326 -0.760002 0.622339 87 83 64
-1.1748 1.04225 -1.08694 -0.10987 -0.779205 0.617064 90 86 67
-1.03676 0.845998 -1.07575 0.830892 -0.388254 -0.398594 23 17 14
-1.10621 1.00792 -1.03851 0.475606 -0.847779 -0.234669 129 114 93
-1.18452 1.17945 -1.00372 0.169043 -0.835158 0.523388 187 177 167
-1.1806 1.18194 -1.00129 0.343036 -0.902021 0.262078 188 176 168
-0.598118 0.179831 -1.07593 -0.0783296 -0.995101 0.0603177 146 131 128
-0.591241 0.18517 -1.06526 -0.542836 -0.827614 -0.142773 138 127 121
-0.590465 0.184609 -1.06516 -0.517074 -0.855768 -0.0171589 140 126 119
-0.590139 0.184528 -1.06459 -0.357154 -0.886487 -0.294248 143 128 122
-0.591818 0.18946 -1.06331 0.268189 -0.754799 -0.598626 143 130 125
-0.591937 0.189573 -1.06342 0.151671 -0.788618 -0.595884 144 130 126
-0.588731 0.184333 -1.06334 0.678717 -0.708132 -0.194657 141 128 120
-0.590064 0.190381 -1.06097 -0.0463685 -0.997071 0.0608281 134 124 117
-1.08183 1.21093 -0.881641 0.859708 -0.419154 0.291911 205 196 179
-1.08214 1.21128 -0.882206 0.862654 -0.423709 0.276221 205 196 179
-1.05258 1.18681 -0.867664 0.615183 -0.779673 -0.116873 203 196 181
-1.05269 1.18667 -0.867779 0.613527 -0.782134 -0.108864 203 196 181
-1.05084 1.18677 -0.864973 -0.564445 -0.765001 -0.310122 204 195 181
-0.633566 0.30599 -1.02846 -0.127356 -0.759605 -0.637793 165 149 144
-0.631029 0.30486 -1.02633 -0.30243 -0.578122 -0.757833 164 146 144
-0.631304 0.305079 -1.02639 -0.205511 -0.590641 -0.780326 165 147 144
-0.631314 0.304745 -1.02615 -0.219578 -0.627811 -0.746752 165 147 144
-0.630062 0.304128 -1.02604 0.669784 -0.563457 -0.483638 164 147 144
-0.971664 1.19948 -0.774986 0.103826 -0.420296 -0.901428 188 167 147
-0.955797 1.18293 -0.770263 0.552897 -0.688234 -0.469722 192 179 163
-0.953199 1.18497 -0.770282 0.548627 -0.694013 -0.466213 191 179 162
-0.817859 0.959197 -0.780635 -0.374849 -0.818794 0.434815 158 142 129
-0.814324 0.960276 -0.77845 -0.0315435 -0.946765 0.320376 156 141 127
-0.813339 0.962743 -0.774006 -0.0136004 -0.951275 0.308044 169 156 143
-0.805861 0.969933 -0.762782 -0.141917 -0.915272 0.377011 167 153 141
-0.807717 0.971009 -0.763525 0.172328 -0.97224 0.158282 181 164 149
-0.806272 1.07613 -0.693586 -0.640621 -0.56094 -0.524358 177 162 145
-0.807451 1.07782 -0.693409 -0.594239 -0.555977 -0.581179 177 162 145
-0.80783 1.07696 -0.694139 -0.613334 -0.514744 -0.599049 177 162 146
-0.806258 1.07609 -0.693604 -0.64286 -0.557406 -0.525385 164 152 138
-0.806394 1.07978 -0.691619 -0.615336 -0.524763 -0.588205 177 164 155
-0.776986 0.979783 -0.727655 0.463551 -0.806905 -0.366095 173 158 141
-0.776606 0.981295 -0.726762 0.231259 -0.759435 -0.608093 173 158 142
-0.776634 0.979552 -0.724662 0.473548 -0.75835 -0.447948 174 158 142
-0.775826 0.978837 -0.726981 0.469607 -0.804012 -0.364738 174 158 142
-0.77742 0.981169 -0.724984 0.315391 -0.947264 -0.05674 174 158 142
-0.773988 0.979063 -0.725891 0.486224 -0.757561 -0.43553 159 146 133
-0.775933 0.98047 -0.724538 0.323833 -0.94466 -0.0524368 173 158 142
-0.774423 0.979835 -0.724064 0.326041 -0.943855 -0.0532452 159 146 133
-0.752547 1.16914 -0.578411 0.544953 -0.699092 -0.462921 168 155 145
-0.754505 1.16832 -0.577279 0.535019 -0.740273 -0.407125 167 154 145
-0.751389 1.16693 -0.577201 0.512181 -0.773357 -0.373617 166 154 145
-0.747545 1.16757 -0.570988 0.292573 -0.809587 -0.508891 167 153 143
-0.74532 1.16969 -0.569583 0.523645 -0.771896 -0.360516 166 152 143
-0.743163 1.16977 -0.566629 0.523156 -0.772849 -0.359183 165 152 141
-0.61734 1.17501 -0.437159 -0.142574 -0.482826 -0.864032 148 133 119
-0.615137 1.17037 -0.436008 -0.0580657 -0.552697 -0.831357 119 109 95
-0.61348 1.17015 -0.437452 -0.0358393 -0.702364 -0.710915 127 114 95
-1.17658 1.04262 -1.08958 -0.179173 -0.759823 0.624953 84 80 62
-1.03465 0.852529 -1.07409 0.405439 -0.879921 0.247707 22 16 11
-0.593292 0.189132 -1.06565 0.63873 -0.730087 -0.242893 142 128 123
-0.592526 0.189327 -1.06445 0.670001 -0.632447 -0.388727 143 128 124
-0.591357 0.189535 -1.06309 0.0889369 -0.545899 -0.833117 140 129 123
-0.591332 0.189683 -1.06286 0.203262 -0.587482 -0.783294 139 129 123
-0.590903 0.190026 -1.06239 0.416441 -0.818999 -0.394737 140 128 121
-0.590318 0.1903 -1.0617 0.000279933 -0.976698 -0.21462 137 127 120
-1.08362 1.19349 -0.90005 0.980241 -0.169713 -0.101616 206 198 185
-1.08332 1.19281 -0.900443 0.975717 -0.212859 0.0516438 206 198 185
-1.08173 1.19392 -0.895988 0.973562 -0.11763 -0.195809 206 198 184
-0.633161 0.305778 -1.02947 -0.482457 -0.672752 -0.560928 164 149 143
-0.632271 0.306439 -1.02726 -0.0773139 -0.990719 -0.111794 167 150 147
-0.631051 0.30588 -1.02699 -0.444627 -0.785737 -0.430027 164 147 144
-0.631316 0.305987 -1.02697 -0.319729 -0.542888 -0.77656 164 148 145
-0.630069 0.30508 -1.02675 -0.295845 -0.695058 -0.655263 161 146 142
-0.969433 1.20403 -0.776214 -0.258909 -0.559849 -0.787106 189 168 147
-0.967504 1.20659 -0.773527 0.404878 -0.278619 -0.870888 198 190 177
-0.959363 1.19059 -0.774705 -0.499952 -0.574871 -0.647743 182 174 163
-0.955949 1.18703 -0.773869 0.349424 -0.229344 -0.908462 201 187 167
-0.950306 1.18748 -0.770507 0.469129 -0.645713 -0.602472 178 161 146
-0.813808 0.956123 -0.782839 -0.3208 -0.875027 0.362512 156 140 127
-0.811238 0.960774 -0.776747 -0.0137923 -0.951242 0.308137 169 157 143
-0.808128 0.96617 -0.77006 -0.00969332 -0.952511 0.304351 168 155 142
-0.80406 0.969859 -0.764883 -0.189402 -0.902725 0.386283 166 153 140
-0.803368 0.970529 -0.761211 0.272236 -0.957789 -0.0923449 166 153 140
-0.801518 0.972039 -0.759748 -0.0861291 -0.93391 0.346978 165 153 139
-0.806585 1.08043 -0.695857 -0.571687 -0.467238 -0.674434 165 147 126
-0.776161 0.982752 -0.729109 0.0952267 -0.810977 -0.577276 174 160 143
-0.777273 0.985003 -0.729034 0.441047 -0.858473 -0.26173 176 164 154
-0.777464 0.983663 -0.726622 0.423313 -0.873235 -0.241388 173 159 142
-0.747431 1.16837 -0.575434 0.518336 -0.785969 -0.337018 167 155 145
-0.744228 1.172 -0.572267 0.506898 -0.661221 -0.553029 166 154 145
-0.744407 1.16987 -0.571342 0.518071 -0.785011 -0.339648 166 154 144
-0.742272 1.17176 -0.569576 0.523076 -0.773039 -0.358891 165 154 144
-0.742031 1.1691 -0.569911 0.536887 -0.722102 -0.436258 166 153 143
-0.618812 1.17639 -0.439532 -0.619392 -0.262014 -0.740069 149 134 120
-0.615003 1.17354 -0.437964 -0.0933338 -0.543282 -0.834346 137 126 113
-0.613395 1.17327 -0.439413 -0.0181828 -0.564911 -0.824952 138 126 113
-0.612471 1.17206 -0.437736 0.490615 -0.0401647 -0.87045 149 138 128
-0.609552 1.17134 -0.436217 -0.254899 -0.14061 -0.95669 149 137 127
-1.18641 1.00786 -1.12879 0.598768 -0.643153 0.477317 112 104 78
-0.598525 0.179202 -1.07796 0.715597 -0.515605 -0.471246 149 136 132
-1.16511 1.18408 -0.991782 0.623319 -0.780155 0.0532248 181 172 162
-0.591338 0.183952 -1.06741 0.154126 -0.771413 -0.617387 141 130 123
-0.589464 0.184775 -1.06515 -0.194193 -0.979037 0.0614377 142 129 121
-0.590858 0.189427 -1.06352 0.0634485 -0.929913 -0.362265 143 131 124
-0.590431 0.18977 -1.06305 -0.00478709 -0.994569 -0.103972 142 131 124
-0.58986 0.190353 -1.06195 -0.0733794 -0.920676 -0.383369 138 128 120
-0.633078 0.307054 -1.02896 -0.0939484 -0.810373 -0.578333 165 149 144
-0.632279 0.306742 -1.02849 0.580596 -0.795545 -0.173253 165 150 145
-0.629091 0.304509 -1.02647 -0.0482077 -0.668658 -0.742005 163 148 145
-0.628173 0.303963 -1.02628 -0.267902 -0.945158 0.186828 164 149 145
-0.969643 1.20795 -0.77814 0.475717 -0.717095 -0.50938 162 149 143
-0.956111 1.18943 -0.778598 0.519272 -0.411791 -0.748856 160 147 141
-0.952785 1.18767 -0.774256 -0.107238 -0.348042 -0.931326 189 177 161
-0.947716 1.18968 -0.770762 0.469584 -0.65102 -0.596375 190 178 161
-0.946408 1.19002 -0.766659 0.451592 -0.637846 -0.623873 199 190 178
-0.946457 1.18946 -0.76677 0.450829 -0.636405 -0.625893 199 190 178
-0.945015 1.18724 -0.766131 0.417891 -0.493131 -0.763013 199 190 178
-0.942843 1.18482 -0.76583 0.368928 -0.501887 -0.782305 202 188 168
-0.93951 1.18445 -0.763421 0.362786 -0.46449 -0.807858 189 177 161
-0.810772 0.955235 -0.784335 -0.424417 -0.904849 -0.0334404 156 140 127
-0.809592 0.964246 -0.775618 0.0146976 -0.956951 0.289877 169 157 143
-0.805841 0.966295 -0.77308 0.189697 -0.971849 0.139733 169 156 143
-0.804047 0.966084 -0.769364 0.145543 -0.981093 0.127571 168 154 141
-0.801968 0.971713 -0.763156 -0.147893 -0.913882 0.378084 165 153 139
-0.800967 0.971283 -0.762676 -0.238969 -0.922995 0.301619 165 152 138
-0.805034 1.07769 -0.69998 -0.538298 -0.448024 -0.713799 181 165 148
-0.803642 1.0712 -0.699741 -0.621465 -0.520646 -0.585414 179 164 147
-0.777425 0.986798 -0.731265 -0.675388 -0.737292 -0.0158572 178 165 156
-0.774282 0.982837 -0.727816 0.439308 -0.859467 -0.261391 174 160 142
-0.777041 1.20959 -0.585479 -0.124484 -0.974939 0.184382 157 141 120
-0.748771 1.17277 -0.577307 0.543985 -0.69761 -0.466284 167 155 145
-0.745509 1.17412 -0.573393 0.543755 -0.6961 -0.468801 167 155 146
-0.73915 1.173 -0.570123 0.441714 -0.0670133 -0.894649 166 154 145
-0.735198 1.16742 -0.570204 0.463993 -0.187598 -0.865747 165 151 134
-0.613722 1.18005 -0.438717 -0.121714 -0.578906 -0.806259 152 136 127
-0.61203 1.17686 -0.438177 -0.0893796 -0.575789 -0.812698 151 137 127
-0.610891 1.17827 -0.43789 -0.0625526 -0.628261 -0.775484 149 133 118
-0.610657 1.17649 -0.439551 0.0300836 -0.628894 -0.776909 148 133 118
-0.609506 1.17501 -0.43717 0.087591 -0.668615 -0.738432 148 133 118
-1.09964 1.05176 -1.01556 0.261874 -0.899915 -0.348677 173 153 132
-0.593097 0.188593 -1.06679 0.394467 -0.886257 -0.242785 144 129 125
-0.631052 0.306056 -1.02835 -0.122396 -0.98484 -0.12292 164 149 145
-0.62983 0.305104 -1.02845 -0.253305 -0.96264 -0.0957092 163 148 144
-0.628164 0.304534 -1.02721 -0.155586 -0.979934 -0.12459 165 148 145
-0.955934 1.19492 -0.779914 -0.414896 -0.90219 0.117957 184 175 165
-0.955935 1.19487 -0.779936 -0.420797 -0.899328 0.118904 184 175 165
-0.947427 1.1902 -0.770408 0.459806 -0.64374 -0.6117 190 178 161
-0.943772 1.19222 -0.76689 0.402859 -0.582195 -0.706225 202 188 168
-0.940965 1.1916 -0.764838 -0.352437 -0.460579 -0.814651 183 176 165
-0.936636 1.18937 -0.764305 0.496463 -0.454238 -0.739724 189 177 160
-0.934427 1.1873 -0.763454 0.449594 -0.661949 -0.59974 188 176 159
-0.935468 1.1884 -0.761092 0.598732 -0.665136 -0.446222 160 148 141
-0.804035 0.965681 -0.772578 0.197706 -0.971397 0.131529 169 155 142
-0.801095 0.967421 -0.770048 0.0195909 -0.995246 -0.0954019 167 154 141
-0.798649 0.967382 -0.768621 0.0226652 -0.993168 -0.11447 167 153 141
-0.802294 1.07282 -0.702094 -0.595342 -0.488623 -0.637821 181 165 148
-0.80294 1.07043 -0.703594 -0.541334 -0.728926 -0.419075 181 165 148
-0.802917 1.07027 -0.703635 -0.437563 -0.821375 -0.365899 181 165 148
-0.80138 1.07206 -0.701408 -0.451907 -0.784673 -0.424344 179 164 147
-0.770781 0.983277 -0.73082 0.226922 -0.872927 -0.431862 175 161 144
-0.771836 0.98204 -0.729331 0.448746 -0.834533 -0.319658 161 148 135
-0.773074 0.982862 -0.730017 0.423646 -0.86056 -0.282774 175 160 144
-0.7734 0.984932 -0.72965 0.242821 -0.951605 -0.188376 175 160 144
-0.770534 0.981333 -0.728772 0.407686 -0.891927 -0.195597 160 148 134
-0.768353 0.979904 -0.728053 0.222631 -0.974642 -0.0225632 160 147 134
-0.773444 1.20221 -0.590164 -0.263214 -0.964713 0.00686008 156 140 120
-0.775118 1.20653 -0.588914 -0.276679 -0.959934 0.0444421 157 140 119
-0.776389 1.21044 -0.588426 -0.262292 -0.960442 0.0935633 157 141 119
-0.771799 1.19947 -0.590192 -0.0826653 -0.993577 -0.077274 172 157 139
-0.742361 1.17675 -0.573047 0.544971 -0.652581 -0.526446 166 155 146
-0.739878 1.17648 -0.570445 0.541483 -0.606819 -0.581864 166 154 145
-0.73621 1.17094 -0.572219 0.437741 -0.174473 -0.882011 167 153 136
-0.612274 1.17951 -0.440305 -0.0640218 -0.629224 -0.774583 151 136 126
-0.610808 1.17905 -0.441786 0.0389372 -0.618665 -0.78469 149 134 118
-0.609401 1.17785 -0.439365 0.0600946 -0.640229 -0.76583 148 134 118
-1.1836 1.00919 -1.13192 0.596603 -0.643474 0.479589 109 103 77
-0.597894 0.18033 -1.07794 0.727745 -0.647766 -0.225356 149 134 130
-0.590396 0.189247 -1.06463 -0.166663 -0.983561 0.0695069 146 132 124
-0.590095 0.189892 -1.06394 0.116981 -0.992361 0.0391868 145 131 124
-0.588943 0.190365 -1.06245 0.258198 -0.964348 -0.0580216 137 126 116
-0.631274 0.306535 -1.02951 -0.539944 -0.69817 -0.470127 164 151 144
-0.629835 0.305371 -1.02971 -0.085051 -0.970329 0.226338 164 150 144
-0.628166 0.304777 -1.02852 0.39965 -0.900088 0.173553 163 148 142
-0.977809 1.19889 -0.802079 -0.584451 -0.736293 -0.341014 175 159 136
-0.944854 1.19313 -0.77468 0.454487 -0.814096 -0.361509 188 175 159
-0.94515 1.19174 -0.771872 0.561994 -0.776418 -0.285198 189 177 160
-0.936803 1.19195 -0.766599 0.103847 -0.575248 -0.811361 189 176 159
-0.93448 1.18908 -0.766293 0.236559 -0.607774 -0.758057 182 174 164
-0.932903 1.18721 -0.765172 0.43523 -0.655279 -0.617402 182 174 163
-0.799968 0.969636 -0.771453 -0.118923 -0.946934 -0.298618 185 170 161
-0.797375 0.966062 -0.771164 0.177789 -0.97329 0.145252 165 154 147
-0.80059 1.07083 -0.705408 -0.460918 -0.787416 -0.409304 180 164 148
-0.800405 1.07059 -0.706587 -0.330359 -0.872697 -0.359531 180 164 147
-0.800463 1.07217 -0.7046 -0.470748 -0.537505 -0.699632 180 164 148
-0.801261 1.07272 -0.705496 -0.418123 -0.512404 -0.750077 181 167 158
-0.798491 1.07026 -0.704741 -0.155076 -0.605416 -0.780655 179 164 147
-0.799365 1.07354 -0.704225 -0.5296 -0.441921 -0.724037 180 164 147
-0.770424 0.98212 -0.731574 0.289013 -0.790627 -0.539797 175 161 144
-0.771635 0.985337 -0.730748 0.262692 -0.964191 0.0364381 175 161 144
-0.768059 0.982567 -0.729528 0.0807042 -0.61594 -0.783649 161 148 135
-0.766517 0.980293 -0.729481 0.390633 -0.903878 -0.174386 161 148 136
-0.766925 0.981063 -0.729133 0.177971 -0.982649 -0.0522283 161 148 135
-0.779344 1.20905 -0.596279 -0.371299 -0.834208 -0.407718 173 161 150
-0.773889 1.2017 -0.594281 -0.270502 -0.956464 0.109568 157 141 119
-0.756351 1.20741 -0.57537 -0.292378 -0.803117 -0.519152 156 138 118
-0.756432 1.20517 -0.572666 -0.272444 -0.579929 -0.767761 155 137 117
-0.613539 1.19799 -0.436741 -0.559324 -0.271954 -0.783069 151 140 129
-0.610329 1.19054 -0.439042 -0.52764 -0.455069 -0.717293 151 139 129
-1.18024 1.01494 -1.1298 0.629954 -0.711766 0.31072 108 103 77
-1.09751 1.05385 -1.01988 -0.0253296 -0.977892 -0.20757 125 110 93
-0.597291 0.188207 -1.0731 0.629781 -0.61599 -0.473215 151 138 129
-0.589158 0.189519 -1.06374 -0.105596 -0.991847 0.0713316 138 126 118
-0.589013 0.189786 -1.06389 0.0875497 -0.996117 0.00924921 140 128 119
-0.63233 0.307578 -1.03137 -0.306913 -0.938151 -0.160243 164 151 142
-0.630609 0.307208 -1.03053 -0.545422 -0.703849 -0.455095 164 151 142
-0.628061 0.304955 -1.02928 -0.207982 -0.95587 0.207498 163 149 141
-0.626953 0.303847 -1.02855 0.0777976 -0.974915 0.208539 165 148 142
-0.948183 1.19066 -0.781156 0.356433 -0.93432 0.0012331 183 174 164
-0.944241 1.19513 -0.776549 0.305898 -0.846783 -0.435184 188 175 159
-0.943676 1.19432 -0.773293 0.41659 -0.639925 -0.645716 188 175 159
-0.934889 1.19115 -0.768895 -0.0705294 -0.705401 -0.705291 153 144 129
-0.929637 1.18693 -0.767327 -0.602226 -0.639833 -0.477428 187 174 158
-0.781805 0.984168 -0.748609 0.875462 -0.178733 -0.449022 183 166 158
-0.781967 0.984335 -0.748635 0.897699 -0.200738 -0.392227 183 166 158
-0.80028 1.07137 -0.709717 -0.163415 -0.950422 -0.264562 141 128 122
-0.769171 0.985334 -0.73251 0.345905 -0.869117 -0.353533 162 150 137
-0.769552 0.986129 -0.731967 0.257576 -0.915232 -0.309847 162 150 136
-0.768062 0.984837 -0.731318 -0.060628 -0.903474 -0.424334 162 149 136
-0.765715 0.983627 -0.730423 0.0374225 -0.935941 -0.350162 162 149 136
-0.765197 0.98078 -0.731054 0.430371 -0.862475 -0.266303 161 148 135
-0.774526 1.20057 -0.601383 -0.2018 -0.973969 -0.103251 158 142 119
-0.776082 1.20437 -0.597788 -0.141822 -0.974982 0.171163 158 141 119
-0.770645 1.20092 -0.598533 -0.28621 -0.956819 0.0508132 173 159 140
-0.768843 1.19941 -0.595108 0.0099514 -0.998393 0.0557812 171 157 139
-0.771256 1.20058 -0.595831 -0.172412 -0.984913 0.0148349 172 159 140
-0.753311 1.20952 -0.575498 0.33427 -0.831012 -0.444616 156 137 116
-1.18364 1.00195 -1.14405 0.416548 -0.615002 0.669522 110 101 75
-1.17792 1.01567 -1.13155 0.582422 -0.62876 0.515214 108 104 79
-1.17822 1.01645 -1.13001 0.610929 -0.669237 0.42295 108 104 79
-1.19961 1.15628 -1.06334 0.51788 -0.828889 0.211527 14 15 12
-1.19813 1.15768 -1.05985 0.708864 -0.694419 -0.123669 16 16 14
-1.07853 1.01739 -1.02936 0.884728 -0.459199 0.079955 113 99 91
-1.09468 1.0522 -1.02129 -0.458836 -0.854325 0.244126 189 169 139
-0.596544 0.188891 -1.07239 0.285528 -0.943158 -0.170079 152 139 130
-0.595771 0.189005 -1.07188 0.50563 -0.861246 -0.0509144 152 138 128
-0.6344 0.304282 -1.03641 0.112479 -0.960726 -0.253681 169 153 147
-0.63285 0.306654 -1.03381 -0.184472 -0.982475 0.0267061 167 153 144
-0.63151 0.307257 -1.03253 -0.0110984 -0.982657 -0.185099 167 152 143
-0.629403 0.306249 -1.03054 -0.527596 -0.682976 -0.505159 165 152 142
-0.627405 0.305092 -1.02874 -0.0164142 -0.998262 -0.0565968 164 148 141
-0.948899 1.19335 -0.78741 -0.393905 -0.810326 0.433832 163 149 142
-0.946571 1.19057 -0.7866 0.393028 -0.864041 -0.314582 183 174 163
-0.940711 1.19515 -0.774172 -0.278247 -0.484314 -0.829469 182 173 163
-0.935918 1.19179 -0.775044 0.262211 -0.697005 -0.667405 152 144 129
-0.936602 1.19372 -0.770731 0.0243807 -0.978607 -0.204288 153 144 129
-0.930882 1.19137 -0.769974 -0.363171 -0.811625 -0.457572 185 173 156
-0.782747 0.988977 -0.749835 0.853069 -0.141396 -0.502275 182 168 159
-0.776267 1.20671 -0.603071 -0.442529 -0.880243 0.17129 175 163 151
-0.77376 1.19761 -0.606183 -0.300647 -0.828492 -0.472454 175 160 141
-0.771325 1.19905 -0.602811 -0.554288 -0.824031 -0.117205 174 159 140
-0.769781 1.20213 -0.601262 -0.275193 -0.953996 0.119 173 158 140
-0.768563 1.1993 -0.597878 -0.142378 -0.972793 0.182763 172 158 139
-0.766893 1.20118 -0.598886 0.102209 -0.960303 0.25956 172 157 139
-0.768298 1.1994 -0.597485 -0.127144 -0.97161 0.199523 171 158 139
-0.765143 1.20067 -0.595513 0.0658749 -0.956832 0.283078 160 148 133
-0.755155 1.21017 -0.579487 0.0501068 -0.990758 0.126045 156 138 117
-0.753142 1.21074 -0.578421 -0.435466 -0.885112 -0.164152 156 137 117
-0.750513 1.21085 -0.573052 0.455416 -0.837813 -0.301107 169 154 144
-1.17677 1.00837 -1.13722 0.419481 -0.480207 0.770349 108 104 79
-1.17673 1.01148 -1.13483 0.358559 -0.562013 0.74537 108 104 79
-1.17682 1.01432 -1.13219 0.531243 -0.736148 0.419366 109 104 80
-1.19947 1.15918 -1.06532 0.605039 -0.771595 -0.19639 13 15 10
-0.59508 0.188934 -1.07163 0.147703 -0.987776 0.0498221 153 137 128
-0.634389 0.305563 -1.03734 0.0902655 -0.907123 -0.411073 170 153 147
-0.633592 0.305537 -1.03632 0.553774 -0.744111 -0.373675 168 153 145
-0.633219 0.307438 -1.03526 0.00498185 -0.998953 -0.0454802 167 153 145
-0.630549 0.307477 -1.03183 -0.544506 -0.70344 -0.456821 167 152 142
-0.629841 0.307668 -1.03161 -0.511518 -0.670765 -0.537051 167 152 142
-0.629876 0.307604 -1.03165 -0.531613 -0.690311 -0.490772 167 152 142
-0.62814 0.306061 -1.03082 0.453733 -0.816878 -0.356141 166 151 142
-0.928559 1.19196 -0.77149 -0.357186 -0.843239 -0.401703 178 171 160
-0.764412 0.986578 -0.7344 -0.167938 -0.974635 0.14793 163 150 137
-0.778749 1.20601 -0.612171 0.417024 -0.907384 -0.0523864 177 163 153
-0.777113 1.20513 -0.608007 -0.328401 -0.943489 0.044514 177 163 153
-0.77369 1.20312 -0.607745 -0.591541 -0.796208 -0.127014 175 162 151
-0.771493 1.20298 -0.604872 0.536897 -0.772316 -0.339514 175 159 141
-0.765952 1.20188 -0.6008 -0.329871 -0.833235 0.44374 156 139 117
-0.749997 1.20851 -0.580787 -0.161846 -0.563591 -0.810044 155 137 116
-1.17336 1.00779 -1.13901 0.491299 -0.536244 0.686344 109 104 80
-1.17446 1.01478 -1.13417 0.254825 -0.674475 0.692927 109 104 80
-1.16299 1.02707 -1.11681 -0.235256 -0.767421 0.596422 110 102 80
-1.15806 1.02282 -1.11489 0.0956008 -0.723542 0.683628 109 101 78
-1.16092 1.02558 -1.11366 0.445932 -0.894854 -0.0194994 109 101 79
-0.596404 0.188846 -1.07362 0.21858 -0.749123 -0.62533 153 139 133
-0.633133 0.305825 -1.03743 0.357907 -0.891477 -0.277796 170 154 147
-0.935939 1.09609 -0.841842 -0.592937 -0.772659 -0.226771 93 88 78
-0.928457 1.19246 -0.776098 -0.401459 -0.763045 -0.50655 156 143 132
-0.926285 1.19172 -0.775032 -0.0459787 -0.817406 -0.574224 179 171 159
-0.780204 0.988159 -0.752161 0.895897 -0.203992 -0.394658 181 168 158
-0.776766 1.20552 -0.611467 0.416347 -0.907497 -0.0557209 177 164 153
-0.775169 1.20477 -0.611595 -0.361676 -0.844959 -0.393998 176 163 152
-0.77184 1.20319 -0.611167 0.0809404 -0.692467 -0.716895 161 142 122
-0.769902 1.20183 -0.609111 -0.55111 -0.453966 -0.700137 160 141 121
-0.746928 1.20938 -0.578765 0.413572 -0.835331 -0.362188 116 104 92
-1.1454 1.05346 -1.08725 -0.151009 -0.804095 0.575002 18 19 16
-0.595087 0.188869 -1.07321 0.135186 -0.988723 0.0644347 155 139 131
-0.633323 0.305639 -1.03785 0.1147 -0.984785 -0.130545 171 155 148
-0.631987 0.307495 -1.03597 -0.0044103 -0.999354 -0.0356787 166 153 143
-0.629868 0.308133 -1.03287 -0.52209 -0.682217 -0.511862 170 153 143
-0.92656 1.18973 -0.78019 -0.450534 -0.653428 -0.608318 196 182 160
-0.889337 1.1223 -0.784738 0.343799 -0.718028 -0.605177 179 172 161
-0.768371 1.20411 -0.609041 0.228395 -0.642701 -0.731281 161 141 121
-0.764801 1.20536 -0.606167 -0.430632 -0.814095 -0.389622 160 140 120
-1.14006 1.059 -1.079 0.102176 -0.827519 0.552062 42 42 36
-0.596476 0.188604 -1.07536 0.795729 -0.507186 -0.331027 153 139 131
-0.593782 0.189212 -1.07242 -0.220291 -0.770899 -0.59765 153 137 127
-0.632826 0.305509 -1.03873 0.319366 -0.912529 -0.255531 171 157 146
-0.632432 0.305837 -1.03839 -0.0707718 -0.972546 0.221687 170 156 145
-0.999959 1.14196 -0.889259 -0.505285 -0.862896 -0.00982931 185 176 149
-0.630816 0.307644 -1.03521 -0.595642 -0.779422 -0.194195 168 154 143
-0.925408 1.19215 -0.778574 -0.383241 -0.656845 -0.64937 179 171 159
-0.92231 1.1902 -0.77796 0.254867 -0.855943 -0.449894 180 172 160
-0.753877 1.20376 -0.601776 0.193131 -0.963137 0.187264 154 139 115
-0.749752 1.20556 -0.595507 -0.350571 -0.823098 -0.446777 171 156 145
-0.592373 0.188909 -1.0718 0.133621 -0.760285 -0.635698 149 133 124
-0.59153 0.188547 -1.07137 0.227258 -0.737362 -0.636121 152 138 129
-1.00075 1.14401 -0.892173 -0.194568 -0.873718 -0.445826 197 182 153
-0.990917 1.12837 -0.889373 -0.535224 -0.824672 0.182895 178 169 148
-0.630772 0.307594 -1.03667 -0.115735 -0.990917 0.0684712 169 156 144
-0.985138 1.12512 -0.888818 0.0843066 -0.583477 -0.807742 200 186 166
-0.921853 1.18812 -0.785365 -0.343307 -0.787675 -0.511574 182 174 162
-0.811032 0.99957 -0.789405 0.476879 -0.257627 -0.840366 188 173 153
-0.809386 0.998033 -0.790013 0.617691 -0.357836 -0.700293 189 177 165
-0.811055 0.999313 -0.789765 0.477569 -0.259074 -0.839529 188 173 154
-0.808065 0.996582 -0.789041 0.477654 -0.259481 -0.839355 187 172 154
-0.602524 0.201106 -1.07545 -0.00889868 -0.994851 0.100955 157 139 130
-0.593769 0.189605 -1.07317 0.740281 -0.629303 -0.236563 155 139 128
-0.593078 0.189387 -1.07286 -0.0384282 -0.773722 -0.632358 153 137 126
-0.592516 0.189421 -1.07252 -0.178139 -0.782047 -0.597218 151 136 124
-0.589096 0.188518 -1.06943 0.728383 -0.428748 -0.534447 143 133 122
-0.589011 0.1888 -1.06936 0.664347 -0.351614 -0.659553 142 133 121
-0.992455 1.13288 -0.892808 -0.565046 -0.747281 -0.349705 197 181 153
-0.920565 1.18649 -0.789323 -0.327672 -0.77195 -0.544723 161 149 138
-0.808912 1.00239 -0.789619 0.425899 -0.289153 -0.857322 190 178 164
-0.806173 0.995264 -0.789542 0.660251 -0.391514 -0.640926 187 172 154
-0.804133 0.999348 -0.785224 0.634786 -0.365199 -0.680938 185 171 154
-0.80087 0.996898 -0.784652 0.651238 -0.379743 -0.657027 186 175 164
-0.684963 1.19877 -0.540441 -0.697862 -0.71622 0.00427511 164 148 131
-0.599582 0.201491 -1.07242 0.0422254 -0.99898 0.0159788 155 139 129
-0.591878 0.189235 -1.07224 0.157333 -0.950456 -0.268105 151 135 124
-0.59164 0.189231 -1.07212 0.520977 -0.845025 -0.120479 151 136 125
-0.590792 0.188906 -1.07171 0.0842905 -0.85004 -0.51993 152 138 128
-0.990353 1.13595 -0.894234 -0.522383 -0.836257 0.166701 214 198 175
-0.926313 1.1928 -0.793622 0.133953 -0.942865 0.305061 162 150 138
-0.914893 1.18255 -0.788326 -0.396313 -0.904834 -0.155603 138 135 123
-0.809961 1.00539 -0.791347 0.665476 -0.38861 -0.637278 190 174 153
-0.806954 1.00177 -0.790459 0.68064 -0.405804 -0.609961 191 178 164
-0.805086 1.00208 -0.787415 0.632177 -0.366925 -0.682436 188 178 166
-0.804045 1.00925 -0.785147 0.599456 -0.33702 -0.725995 188 178 163
-0.804674 1.00612 -0.786136 0.573761 -0.319289 -0.754223 188 178 164
-0.603667 0.201022 -1.07772 0.412885 -0.651159 -0.636803 159 143 134
-0.602838 0.200738 -1.07718 0.00536448 -0.994813 0.101576 160 143 134
-0.602477 0.200857 -1.07705 -0.102318 -0.994738 -0.00523609 162 144 135
-0.601878 0.201652 -1.07558 0.450107 -0.892792 0.0180419 160 142 132
-0.592583 0.190086 -1.07316 -0.342858 -0.676408 -0.65186 152 137 125
-0.590022 0.188735 -1.0713 0.186983 -0.763627 -0.61799 148 135 126
-0.58932 0.188654 -1.07086 -0.00805625 -0.997089 0.0758151 147 135 125
-0.588906 0.188653 -1.07072 -0.196626 -0.979317 -0.0477127 145 134 124
-0.917851 1.18834 -0.791212 0.0189043 -0.570927 -0.820783 197 190 172
-0.912419 1.18509 -0.788322 -0.0677044 -0.86369 -0.499455 85 82 73
-0.898961 1.22114 -0.753414 0.221334 -0.943305 -0.247361 134 123 107
-0.896728 1.22066 -0.753979 0.0460281 -0.94059 -0.336411 135 123 107
-0.806004 1.0095 -0.787983 0.386157 -0.39434 -0.833894 173 163 151
-0.806056 1.00913 -0.788029 0.563695 -0.313075 -0.764351 191 179 163
-0.802774 1.00966 -0.786425 0.59813 -0.337829 -0.726714 190 178 163
-0.80037 1.0079 -0.783196 0.749971 -0.508412 -0.423155 185 171 152
-0.801139 1.00971 -0.78297 0.597465 -0.336542 -0.727857 185 171 152
-0.602529 0.200798 -1.07787 0.510965 -0.613005 -0.602611 164 144 136
-0.599372 0.201162 -1.07393 0.310558 -0.948681 0.0596443 156 139 128
-0.598384 0.201563 -1.07311 0.033928 -0.995872 0.0841915 152 139 126
-0.589927 0.189076 -1.07197 -0.0309276 -0.876283 -0.480804 153 137 128
-0.898505 1.2202 -0.760588 -0.458003 -0.8796 -0.128597 180 172 159
-0.894586 1.21971 -0.754385 -0.00871499 -0.94897 -0.315246 112 104 94
-0.893522 1.22129 -0.753374 0.0317135 -0.939303 -0.341621 112 104 94
-0.797183 1.01176 -0.781487 0.558417 -0.317197 -0.766522 187 171 152
-0.597416 0.201314 -1.073 0.224395 -0.876076 -0.426776 152 139 126
-0.597002 0.201649 -1.07232 0.0270188 -0.993982 0.106159 152 140 126
-0.595992 0.201166 -1.07157 0.810649 -0.492062 -0.317369 151 137 123
-0.589315 0.189192 -1.07154 -0.0426438 -0.883737 -0.466036 150 135 126
-0.895692 1.21867 -0.759122 0.12294 -0.968843 0.215008 135 132 117
-0.792858 1.01413 -0.778477 0.371899 -0.355574 -0.857472 168 160 149
-0.604085 0.199345 -1.08164 0.24229 -0.969443 0.0384288 73 65 59
