ply
format ascii 1.0
element vertex 716
property float x
property float y
property float z
property float nx
property float ny
property float nz
property uchar diffuse_red
property uchar diffuse_green
property uchar diffuse_blue
end_header
0.896065 -0.475919 2.56256 0.551199 0.553875 -0.624021 115 90 65
0.900844 -0.4779 2.56765 0.33724 0.569489 -0.749634 146 126 100
0.904982 -0.476162 2.56824 0.398896 0.419387 -0.815473 142 121 96
0.910928 -0.477023 2.57065 0.44842 0.629438 -0.634608 120 100 76
0.913922 -0.477116 2.57207 0.111137 0.892431 -0.437283 147 128 103
0.916301 -0.477808 2.5708 0.585601 0.378614 -0.716745 160 141 117
0.917197 -0.477421 2.57266 0.61013 0.373742 -0.698611 155 137 112
0.92473 -0.47872 2.58258 0.288244 0.30555 -0.907499 160 142 118
0.930357 -0.477933 2.58663 -0.429112 0.802604 -0.414355 120 102 78
0.927552 -0.478573 2.58324 0.542382 0.195583 -0.817049 142 124 99
0.941019 -0.481355 2.59313 0.649126 0.205285 -0.732457 228 213 188
0.945803 -0.481213 2.59631 -0.152574 0.345788 -0.925825 208 195 170
0.949628 -0.479905 2.59821 -0.113283 0.320115 -0.940582 127 117 99
0.952337 -0.480373 2.60069 0.603292 -0.1432 -0.784559 99 90 73
0.952715 -0.479865 2.59765 -0.179964 0.214646 -0.959969 99 91 74
0.955825 -0.479936 2.59758 -0.149768 0.160836 -0.975552 74 66 51
0.959184 -0.480395 2.60038 -0.0781927 0.628954 -0.773501 59 51 39
0.621644 -0.467897 2.4757 0.321064 0.835976 -0.445043 255 255 249
0.622054 -0.466126 2.48009 0.429249 -0.0656889 -0.900794 254 254 248
0.626981 -0.467606 2.48749 0.686362 0.369953 -0.626133 254 253 241
0.628816 -0.467756 2.4873 0.66423 0.438628 -0.605312 253 252 238
0.632478 -0.469211 2.48656 -0.304947 0.523103 -0.795846 252 245 219
0.634526 -0.466467 2.48302 -0.677721 -0.0353045 -0.734471 253 254 241
0.639791 -0.465931 2.47794 -0.292216 0.391161 -0.872699 253 254 242
0.643496 -0.465588 2.47526 -0.579572 0.571551 -0.580884 254 252 234
0.64603 -0.46338 2.4738 -0.405687 0.745827 -0.528356 253 249 228
0.675398 -0.468416 2.4957 0.580774 0.580575 -0.570644 249 246 231
0.678149 -0.468379 2.49707 0.618153 0.512915 -0.595655 252 253 240
0.684071 -0.46752 2.49227 -0.691218 0.337947 -0.638756 251 244 221
0.685941 -0.467476 2.4935 -0.680835 0.309594 -0.663789 249 242 222
0.688622 -0.466234 2.49271 -0.594037 -0.252178 -0.763889 250 241 222
0.698475 -0.465544 2.49273 -0.268099 0.51995 -0.811033 254 254 247
0.703306 -0.466621 2.48889 0.165722 -0.0650681 -0.984024 254 254 246
0.706269 -0.46664 2.48952 -0.550772 -0.360059 -0.752999 216 193 170
0.70483 -0.463975 2.48865 -0.691736 -0.0718411 -0.718568 252 249 238
0.718743 -0.470817 2.5181 0.508459 -0.423372 -0.749817 247 221 188
0.723263 -0.47142 2.51837 0.61495 -0.14073 -0.775907 249 236 207
0.729487 -0.468471 2.517 0.0875916 0.492352 -0.865977 240 221 192
0.732441 -0.46858 2.51783 -0.0458969 0.458664 -0.887424 254 248 228
0.731096 -0.470857 2.5161 -0.672256 -0.100432 -0.733475 243 230 204
0.734832 -0.470225 2.51722 0.228279 0.360193 -0.904516 254 251 232
0.737675 -0.470094 2.51871 0.608495 0.507291 -0.610238 254 254 241
0.737706 -0.47017 2.51844 0.609839 0.48244 -0.628767 254 254 240
0.740806 -0.470086 2.51826 0.0698977 0.00487718 -0.997542 250 240 222
0.746195 -0.470498 2.52116 -0.36538 0.552535 -0.749135 254 254 242
0.767691 -0.469759 2.51956 -0.023557 0.0712005 -0.997184 252 255 249
0.771419 -0.469929 2.52028 0.383924 0.111707 -0.916583 246 240 220
0.774016 -0.470031 2.52205 0.423071 0.167172 -0.890542 237 213 182
0.776641 -0.469931 2.52288 0.438137 -0.0425326 -0.897902 251 244 224
0.782923 -0.469818 2.52386 0.595388 -0.215319 -0.774048 250 241 218
0.785689 -0.468905 2.52555 0.629171 -0.160551 -0.760504 252 248 233
0.800114 -0.467948 2.5217 0.632857 0.0380663 -0.773332 252 254 243
0.806878 -0.468504 2.52789 0.385397 -0.0506165 -0.921362 226 187 145
0.810007 -0.468469 2.52803 0.0984491 -0.142583 -0.984875 234 198 155
0.816498 -0.469257 2.53047 0.481724 -0.387939 -0.785777 248 231 200
0.822467 -0.468864 2.53321 -0.134828 -0.57594 -0.806297 233 205 169
0.825797 -0.469261 2.53199 -0.5506 -0.420206 -0.721295 250 241 213
0.828691 -0.469461 2.53238 -0.135539 -0.254429 -0.957546 248 237 213
0.831636 -0.469147 2.53145 0.309922 0.124215 -0.942613 254 253 243
0.848763 -0.467146 2.5277 -0.0280756 -0.0266458 -0.999251 255 251 230
0.85625 -0.468771 2.54004 0.573251 -0.263596 -0.775823 247 215 180
0.857307 -0.469431 2.54075 0.494161 -0.305422 -0.813955 245 210 176
0.856845 -0.469365 2.54088 0.583857 -0.243989 -0.774326 246 213 179
0.859953 -0.469604 2.54257 0.155982 -0.306863 -0.938885 209 171 139
0.860344 -0.469397 2.54198 0.422316 -0.249113 -0.871546 202 164 132
0.863217 -0.469344 2.54252 0.306994 -0.0411388 -0.950822 179 143 112
0.870285 -0.470208 2.54447 0.471738 0.225199 -0.852495 210 180 152
0.874123 -0.470427 2.54871 0.531307 0.0758699 -0.843775 195 165 138
0.879572 -0.47094 2.55203 0.475104 0.34269 -0.810456 192 166 139
0.882762 -0.471153 2.556 0.553098 0.556499 -0.619994 208 182 155
0.884394 -0.470881 2.55772 0.137806 0.307759 -0.941432 206 180 154
0.890592 -0.473466 2.55963 0.248965 0.60192 -0.758755 134 107 81
0.893296 -0.470941 2.56248 0.614829 0.0875317 -0.783788 121 96 70
0.903012 -0.473576 2.56781 0.454888 -0.296651 -0.839688 141 120 93
0.905821 -0.473529 2.56885 0.590693 -0.184801 -0.785449 130 110 84
0.911644 -0.474411 2.57529 0.615212 -0.0388168 -0.787405 121 102 77
0.914642 -0.475732 2.57825 0.456847 0.0884695 -0.885135 162 143 118
0.920834 -0.476381 2.58077 0.56278 0.259188 -0.784921 152 135 110
0.927383 -0.476189 2.58646 0.298827 0.57815 -0.75924 125 109 84
0.930907 -0.474471 2.58895 0.470852 0.662705 -0.582341 104 87 64
0.934516 -0.474836 2.58748 -0.154499 0.869986 -0.468245 108 91 69
0.939836 -0.477714 2.59234 0.633832 0.231265 -0.738088 151 137 112
0.944588 -0.478532 2.59629 0.344717 -0.256455 -0.902996 195 182 159
0.948172 -0.477201 2.59769 0.107881 0.0245536 -0.993861 146 136 118
0.945917 -0.47497 2.59515 0.547466 -0.22955 -0.804728 152 141 121
0.950977 -0.477525 2.59958 0.408647 -0.0697992 -0.91002 84 75 59
0.617425 -0.462882 2.47806 -0.0491619 0.921908 -0.384278 254 255 254
0.618459 -0.463855 2.47165 0.324895 0.653369 -0.683778 255 255 254
0.620694 -0.463191 2.48015 0.172675 0.813941 -0.554692 253 254 245
0.620927 -0.462778 2.48223 0.317914 0.835147 -0.448843 253 253 241
0.641777 -0.463151 2.48348 0.0516611 0.338645 -0.939495 252 247 226
0.642287 -0.463505 2.48235 -0.305779 0.719389 -0.623681 253 250 230
0.647172 -0.462001 2.483 -0.635742 0.474381 -0.60893 236 207 173
0.650306 -0.46151 2.47952 -0.633656 0.466641 -0.61703 238 210 175
0.649845 -0.462704 2.47339 0.372914 0.75515 -0.539151 241 222 191
0.65316 -0.461221 2.47476 -0.0908595 0.749808 -0.655387 247 225 192
0.656075 -0.462599 2.47465 -0.107942 0.392775 -0.913278 248 233 206
0.689359 -0.464087 2.49406 -0.58664 -0.280586 -0.759687 253 248 234
0.693589 -0.465407 2.49509 -0.0746875 -0.18461 -0.97997 250 239 216
0.69634 -0.463783 2.49108 -0.109251 0.606768 -0.787336 249 238 217
0.702138 -0.462284 2.49117 -0.563043 0.627746 -0.53751 254 254 248
0.724859 -0.46597 2.51557 0.639721 -0.17786 -0.747746 243 219 188
0.728004 -0.465937 2.51679 0.386092 -0.300215 -0.872241 243 225 195
0.730577 -0.466168 2.5189 0.337052 -0.015882 -0.941352 249 232 202
0.735556 -0.467368 2.51828 0.627256 0.413369 -0.660058 250 242 222
0.739025 -0.467725 2.51935 -0.0979792 0.463571 -0.880626 252 249 238
0.74156 -0.464544 2.517 -0.00620548 0.833628 -0.552291 254 253 238
0.766725 -0.46749 2.5216 -0.0641397 0.09503 -0.993406 252 255 248
0.76949 -0.467327 2.52066 0.158719 0.0626993 -0.985331 252 255 249
0.769537 -0.467345 2.52063 0.144478 0.0301788 -0.989048 252 255 249
0.775212 -0.467198 2.52181 0.523951 -0.15309 -0.837878 246 233 214
0.778968 -0.467536 2.52486 -0.248718 0.420218 -0.872672 254 253 239
0.781524 -0.467296 2.52398 0.135612 0.0218896 -0.99052 251 246 226
0.783054 -0.46463 2.52415 0.324409 -0.107738 -0.939761 249 241 221
0.786789 -0.464802 2.52451 0.297245 -0.226082 -0.927649 254 251 233
0.794313 -0.464224 2.52051 0.501272 0.649409 -0.571834 254 255 241
0.799268 -0.465291 2.52487 -0.381981 0.214811 -0.898859 254 254 241
0.802324 -0.466065 2.5231 0.67437 0.103065 -0.731165 253 246 222
0.803927 -0.464336 2.52646 0.444185 0.274019 -0.853003 250 233 198
0.806805 -0.464138 2.52691 0.22463 0.0539378 -0.97295 241 216 175
0.811694 -0.465695 2.52729 0.165276 -0.17387 -0.9708 241 208 165
0.815287 -0.466476 2.52942 0.350677 -0.281752 -0.893108 239 212 174
0.818792 -0.46639 2.53092 0.436665 -0.447383 -0.780494 253 249 223
0.823201 -0.465507 2.53122 -0.503353 -0.435124 -0.746527 247 232 204
0.833261 -0.466254 2.53047 -0.0600762 -0.0916806 -0.993975 253 243 221
0.847121 -0.463747 2.528 0.440328 0.518605 -0.732912 248 235 202
0.856329 -0.466836 2.53985 0.590947 -0.228201 -0.773761 247 218 184
0.861812 -0.466705 2.5419 0.348708 -0.216217 -0.91195 184 148 116
0.864678 -0.466787 2.54323 0.302751 -0.0935558 -0.948467 213 181 153
0.868849 -0.467463 2.54322 0.396759 -0.00256286 -0.917919 176 146 118
0.873592 -0.467367 2.54918 0.558235 0.107683 -0.822665 127 96 70
0.871213 -0.465996 2.54652 0.541551 0.0232496 -0.840346 123 90 64
0.880155 -0.468761 2.55549 0.46947 0.574843 -0.670189 150 120 94
0.876067 -0.468691 2.55102 0.510118 0.621861 -0.594196 147 117 92
0.88293 -0.468259 2.55726 0.327669 0.104847 -0.938957 160 132 105
0.885778 -0.468226 2.55809 0.202853 0.0936494 -0.974721 159 133 106
0.891548 -0.468563 2.56125 0.574773 -0.188283 -0.796358 128 102 77
0.897928 -0.470813 2.56749 -0.414296 0.513404 -0.751515 113 89 64
0.900737 -0.470591 2.56629 0.505899 -0.0759099 -0.859246 130 107 81
0.90691 -0.470066 2.56891 0.598733 -0.133749 -0.789703 150 131 105
0.913396 -0.472046 2.57723 0.274139 -0.404401 -0.872529 167 149 124
0.916976 -0.471994 2.57855 0.366243 -0.435084 -0.822537 133 116 90
0.920507 -0.472012 2.58022 0.205783 -0.451845 -0.868037 115 98 73
0.927341 -0.473476 2.58791 0.276733 -0.568464 -0.77477 107 91 67
0.929004 -0.471167 2.58827 0.157678 -0.422953 -0.892328 109 94 71
0.938387 -0.473956 2.58994 0.625439 0.345108 -0.699804 117 104 81
0.944363 -0.47244 2.59447 0.567948 -0.239813 -0.787353 118 105 86
0.948839 -0.473949 2.59894 0.55112 -0.0897796 -0.829582 95 85 68
0.952195 -0.475279 2.6027 0.345169 0.10164 -0.933021 79 70 55
0.61747 -0.460597 2.4827 0.301592 0.844241 -0.443057 255 255 253
0.64125 -0.460552 2.4874 -0.280254 0.552837 -0.784748 251 241 210
0.644015 -0.461412 2.48593 -0.40493 0.548543 -0.731528 250 232 200
0.650067 -0.45839 2.48138 -0.580992 0.579881 -0.571127 233 207 169
0.653044 -0.458371 2.47837 -0.577524 0.586706 -0.567665 248 234 203
0.655108 -0.45906 2.47862 -0.689799 0.2789 -0.668126 248 235 206
0.671245 -0.460588 2.49523 -0.439488 0.407228 -0.800635 252 249 231
0.673552 -0.460536 2.49509 -0.638235 0.368987 -0.675651 252 250 235
0.692499 -0.461602 2.49631 0.669737 -0.126557 -0.731734 248 235 208
0.704133 -0.460269 2.48979 -0.569025 0.618189 -0.542267 246 238 225
0.721121 -0.46124 2.50886 -0.274252 0.408885 -0.870402 241 220 189
0.726711 -0.462999 2.51391 0.489899 -0.443982 -0.750252 253 239 209
0.730005 -0.463051 2.5163 0.479344 -0.455865 -0.749944 244 222 190
0.733345 -0.464803 2.51967 0.00494477 0.520692 -0.85373 239 214 182
0.738073 -0.464821 2.51868 -0.306309 0.406404 -0.86082 253 251 238
0.739716 -0.462427 2.52104 -0.19152 0.415891 -0.889019 254 254 244
0.781793 -0.462039 2.52371 0.13533 0.0308122 -0.990321 254 252 240
0.785612 -0.462287 2.52623 -0.152349 -0.260296 -0.953434 252 244 226
0.79207 -0.462363 2.52303 0.288601 0.570152 -0.769179 254 252 237
0.7952 -0.462054 2.52408 -0.33438 -0.418812 -0.844267 253 251 235
0.793871 -0.461513 2.52294 0.236479 0.593094 -0.769621 253 251 235
0.797579 -0.462149 2.52502 0.550085 0.338707 -0.763337 254 252 238
0.802289 -0.461774 2.52621 -0.656951 -0.0289512 -0.753377 254 250 228
0.801309 -0.462471 2.5254 0.644454 0.380331 -0.663346 254 254 239
0.805478 -0.461452 2.52603 -0.501213 -0.150814 -0.85208 247 225 187
0.805285 -0.461456 2.52607 -0.542225 -0.118099 -0.831892 247 226 188
0.84889 -0.460853 2.53811 0.418628 0.142735 -0.896871 239 204 168
0.848703 -0.461289 2.5377 0.576061 0.219768 -0.787309 242 208 172
0.844962 -0.460789 2.52483 0.439098 0.642473 -0.628029 251 241 214
0.851731 -0.461277 2.5388 0.596722 0.254174 -0.761129 215 174 139
0.850403 -0.463612 2.53685 0.29152 0.213169 -0.93251 233 201 166
0.857597 -0.464242 2.54068 0.394939 0.114329 -0.911566 220 186 154
0.857231 -0.461457 2.54113 0.0285336 0.209714 -0.977346 203 166 133
0.854602 -0.461092 2.53927 0.442536 0.186996 -0.877037 224 187 152
0.860366 -0.464233 2.54182 0.389454 0.122445 -0.912871 165 128 95
0.860276 -0.461576 2.5423 0.43977 0.189161 -0.877964 166 131 100
0.865829 -0.464629 2.54553 0.153466 0.49048 -0.857833 147 114 86
0.863155 -0.464216 2.543 0.413519 0.0493641 -0.909156 147 114 84
0.868859 -0.464659 2.54629 0.152213 0.490659 -0.857954 131 96 70
0.872795 -0.464431 2.55029 0.545518 0.326635 -0.771829 121 88 62
0.878587 -0.465778 2.55716 0.175557 0.172493 -0.96924 110 80 53
0.884296 -0.465665 2.55795 0.190678 -0.00541792 -0.981638 157 129 103
0.881428 -0.46568 2.557 0.185842 0.194371 -0.963163 143 114 87
0.887139 -0.465727 2.55885 0.190904 0.0420158 -0.980709 130 104 78
0.88993 -0.465889 2.5602 0.111466 0.238005 -0.964847 120 94 68
0.893896 -0.464539 2.56162 0.548441 0.538542 -0.639676 129 105 79
0.901312 -0.46751 2.56761 0.210895 0.395848 -0.893772 141 119 94
0.904282 -0.467587 2.56887 0.184456 0.350853 -0.918084 162 141 115
0.904998 -0.46588 2.57108 -0.0535929 0.155086 -0.986446 148 128 102
0.910004 -0.466127 2.57256 0.281836 -0.478376 -0.8317 159 142 116
0.91369 -0.46613 2.57407 0.328346 -0.478985 -0.814102 185 168 143
0.913877 -0.466965 2.57465 0.201697 -0.518278 -0.831087 186 168 144
0.914357 -0.466683 2.57474 0.25295 -0.513046 -0.820244 162 144 119
0.919246 -0.469107 2.57867 0.459296 -0.416921 -0.784362 98 81 57
0.927393 -0.468733 2.58893 0.1878 0.335296 -0.923205 113 98 75
0.93031 -0.468695 2.58924 0.179274 0.313473 -0.932521 129 116 93
0.934088 -0.468908 2.58752 0.60777 0.0635899 -0.791563 152 139 118
0.936531 -0.4706 2.58943 0.589064 0.0107918 -0.808015 135 121 100
0.942731 -0.469711 2.59246 0.572123 -0.163061 -0.803795 107 93 75
0.946976 -0.471467 2.59742 0.579498 -0.21094 -0.787201 102 91 74
0.953468 -0.472521 2.60267 0.546058 -0.0379988 -0.836885 80 71 58
0.960409 -0.471557 2.61097 0.632836 0.297491 -0.714855 50 43 33
0.956384 -0.470754 2.60608 0.443537 0.461772 -0.768142 61 52 41
0.643949 -0.458465 2.48841 -0.65317 0.419373 -0.630472 240 216 183
0.647435 -0.458786 2.48439 -0.611493 0.525345 -0.591683 235 205 170
0.652898 -0.455513 2.48195 -0.504938 0.679691 -0.532032 251 249 230
0.656403 -0.455567 2.47922 -0.688556 0.306495 -0.657231 253 253 240
0.670877 -0.458739 2.49985 -0.69249 0.144182 -0.706873 250 245 225
0.67347 -0.457215 2.49763 -0.703134 0.109085 -0.70264 248 247 233
0.677121 -0.456909 2.49542 -0.22108 0.00872533 -0.975217 215 193 164
0.691081 -0.458214 2.49295 0.603921 -0.186263 -0.774975 252 252 244
0.69183 -0.459228 2.49715 0.49821 -0.131157 -0.857079 249 244 229
0.693748 -0.456246 2.49611 0.665683 0.389583 -0.636467 243 231 211
0.693633 -0.459139 2.49622 0.590427 0.318354 -0.741651 244 234 211
0.691737 -0.456059 2.49564 0.381013 0.377981 -0.843777 250 249 238
0.696025 -0.456617 2.49756 0.325812 0.141243 -0.934825 225 202 176
0.698758 -0.456602 2.49844 0.215682 0.370693 -0.903365 240 226 205
0.697643 -0.459202 2.49816 0.179606 0.191323 -0.964954 234 220 196
0.701799 -0.456667 2.49916 0.181378 0.2126 -0.960158 241 230 210
0.700439 -0.459107 2.49825 0.182509 0.212117 -0.96005 252 247 235
0.704714 -0.456683 2.4998 0.0417296 0.822453 -0.567301 188 146 113
0.715441 -0.459664 2.50894 -0.473473 0.422687 -0.77276 210 173 137
0.713452 -0.458866 2.51036 -0.0739403 0.773894 -0.628984 200 159 123
0.714518 -0.459173 2.50987 -0.376123 0.447451 -0.811369 206 168 133
0.719321 -0.458788 2.5113 -0.632923 0.202905 -0.747154 248 241 220
0.717231 -0.459252 2.5106 -0.681718 0.18234 -0.708529 221 195 164
0.72169 -0.458175 2.51121 -0.344708 0.554577 -0.757377 253 251 233
0.732111 -0.45934 2.52011 0.596068 0.098901 -0.79682 254 253 238
0.730589 -0.460934 2.51679 0.511936 -0.385503 -0.767665 252 243 219
0.733656 -0.461817 2.52 0.273072 0.106747 -0.956053 251 241 221
0.738455 -0.459755 2.52214 -0.67111 0.352326 -0.652287 254 253 241
0.783468 -0.459221 2.5249 0.0458493 -0.0485184 -0.997769 254 252 238
0.787407 -0.459335 2.525 -0.125593 -0.396434 -0.909432 251 246 227
0.791854 -0.459664 2.52423 -0.476665 -0.491098 -0.729118 242 228 204
0.793634 -0.458823 2.52413 -0.0447383 -0.706671 -0.706127 248 241 220
0.798234 -0.459493 2.52582 0.526614 0.258491 -0.809852 254 253 240
0.802092 -0.457951 2.52634 -0.650624 -0.112891 -0.750962 253 247 226
0.804189 -0.460279 2.52663 -0.567087 0.0655177 -0.821048 250 240 213
0.843839 -0.458448 2.52591 0.0956653 0.0577293 -0.993738 249 236 208
0.853541 -0.458044 2.53997 0.567844 0.153868 -0.808627 224 188 153
0.853736 -0.45762 2.54028 0.566987 0.187493 -0.802105 229 193 159
0.853059 -0.458667 2.53926 0.5988 0.307354 -0.739576 218 181 146
0.856595 -0.45822 2.54016 -0.203334 -0.0889922 -0.975057 209 171 138
0.855883 -0.458753 2.5403 0.21024 0.0158988 -0.97752 219 180 148
0.861952 -0.459319 2.54375 0.626113 0.169769 -0.761027 162 128 99
0.859359 -0.458219 2.54141 0.413328 0.0647633 -0.908276 181 146 116
0.858669 -0.458914 2.54149 0.136543 0.0421155 -0.989739 184 148 117
0.865187 -0.461253 2.54661 0.657498 0.14801 -0.738775 146 113 85
0.866985 -0.459074 2.54874 0.665825 0.156586 -0.729492 132 100 72
0.871183 -0.461799 2.55146 0.116402 0.262456 -0.957898 121 88 61
0.873866 -0.462032 2.55291 0.308363 -0.418251 -0.854387 116 85 57
0.877019 -0.463154 2.55643 0.396521 -0.465692 -0.79114 119 88 62
0.875418 -0.462553 2.55442 0.362747 -0.525335 -0.7697 114 83 56
0.879923 -0.463203 2.55731 0.173894 -0.58903 -0.78918 137 108 82
0.882944 -0.462924 2.55693 0.600058 0.0128256 -0.799854 143 115 90
0.885646 -0.463228 2.55899 0.238837 -0.110877 -0.964709 121 94 68
0.888384 -0.463403 2.56044 0.561757 -0.0723854 -0.824129 131 105 79
0.890969 -0.46206 2.5622 0.520143 0.602539 -0.605309 145 120 95
0.8992 -0.463698 2.57086 0.50288 0.624519 -0.597567 122 100 75
0.902184 -0.463588 2.57367 0.499984 0.624259 -0.600264 125 104 79
0.906464 -0.463193 2.57055 -0.26757 0.271283 -0.92456 126 105 80
0.910469 -0.462686 2.57154 0.0394086 -0.498547 -0.865966 170 152 126
0.913919 -0.463292 2.57215 -0.148229 -0.517733 -0.842604 137 120 96
0.912582 -0.463121 2.57202 0.250313 -0.478378 -0.841723 180 162 137
0.915901 -0.463074 2.57306 0.358008 -0.365965 -0.859011 103 84 63
0.916627 -0.463719 2.5736 0.230243 -0.464939 -0.85488 101 83 61
0.925694 -0.466188 2.58876 0.380523 -0.369567 -0.847716 130 114 94
0.928672 -0.466255 2.58985 0.187109 0.335357 -0.923323 138 124 102
0.933736 -0.465473 2.58764 0.544486 0.0532295 -0.837079 111 98 78
0.936295 -0.466972 2.58963 0.419644 0.215182 -0.881814 122 110 90
0.943164 -0.467099 2.59668 -0.137607 0.849867 -0.508714 83 71 55
0.955558 -0.467993 2.60881 0.539184 0.185291 -0.821552 71 63 50
0.952996 -0.468213 2.60463 0.525416 -0.106859 -0.844108 80 71 58
0.958208 -0.468625 2.60919 0.581765 0.381982 -0.71808 57 50 38
0.965235 -0.4705 2.61771 0.628192 0.174729 -0.758185 60 54 44
0.970368 -0.470439 2.62102 0.118576 0.0915362 -0.988717 48 44 37
0.977644 -0.471215 2.6227 -0.44532 -0.57667 -0.68494 28 27 20
0.977485 -0.466702 2.61277 -0.42112 0.795632 -0.435462 32 31 25
0.646255 -0.455508 2.49058 -0.0447779 0.661549 -0.748564 241 224 191
0.643299 -0.454206 2.4915 0.583402 0.586443 -0.561896 249 237 210
0.649339 -0.454073 2.49153 -0.370646 0.677495 -0.635313 253 250 232
0.649246 -0.455672 2.48751 -0.544787 0.62441 -0.559748 248 235 212
0.652199 -0.453057 2.48857 -0.625726 0.277081 -0.729173 252 248 227
0.652549 -0.453218 2.48849 -0.654168 0.257945 -0.711005 252 247 227
0.656372 -0.452932 2.48231 -0.556399 0.616171 -0.557452 253 253 240
0.655681 -0.452115 2.48524 -0.0411845 0.0790106 -0.996023 252 249 231
0.675652 -0.454167 2.49518 -0.680882 0.0904595 -0.726785 230 208 179
0.681782 -0.452531 2.49196 0.197834 -0.631778 -0.749479 240 216 189
0.691562 -0.453811 2.49739 0.509684 0.637159 -0.578144 251 246 235
0.691089 -0.452714 2.49291 0.661079 0.403126 -0.632822 251 251 244
0.697402 -0.454196 2.49881 0.184392 0.216239 -0.95877 222 198 170
0.700263 -0.454199 2.49938 0.181061 0.210865 -0.9606 249 241 220
0.703177 -0.454236 2.50012 0.193434 0.221498 -0.955783 197 159 127
0.711672 -0.456677 2.51509 0.506986 0.648498 -0.567816 195 153 119
0.711582 -0.456771 2.51451 0.482671 0.651425 -0.585384 193 151 117
0.712049 -0.456462 2.51376 0.202563 0.719809 -0.66396 199 159 125
0.71506 -0.456655 2.51365 -0.322034 0.483158 -0.814157 227 204 175
0.715484 -0.456789 2.51333 -0.52224 0.305804 -0.796084 230 211 184
0.717709 -0.456206 2.51347 -0.669244 0.216851 -0.710696 251 248 229
0.729121 -0.455583 2.51765 -0.107695 0.667546 -0.736739 253 251 235
0.737022 -0.456715 2.52346 -0.709825 0.297323 -0.638551 254 248 228
0.784656 -0.455904 2.52168 0.028977 -0.562119 -0.826548 253 251 238
0.788794 -0.456133 2.52377 -0.489442 -0.484436 -0.725099 245 236 213
0.792683 -0.456125 2.52118 -0.477128 -0.495955 -0.725519 252 248 231
0.801662 -0.453832 2.52515 -0.522158 0.348415 -0.778433 254 248 226
0.804156 -0.455698 2.52469 0.0478364 -0.487604 -0.871753 251 242 217
0.807633 -0.456093 2.52683 -0.216101 -0.378325 -0.900095 245 231 200
0.814339 -0.455428 2.5356 -0.223767 -0.00432652 -0.974633 252 246 214
0.846909 -0.454198 2.53232 0.645864 0.33488 -0.686087 249 234 205
0.850534 -0.454553 2.53881 0.571567 0.491668 -0.656942 250 231 198
0.853409 -0.454539 2.53928 0.178636 0.195918 -0.964212 234 196 162
0.858766 -0.45546 2.54075 0.158848 -0.233447 -0.959307 184 150 120
0.864381 -0.457736 2.54575 0.642281 -0.0400136 -0.765424 148 115 87
0.866161 -0.455591 2.54843 0.650586 0.177891 -0.738304 141 108 80
0.861898 -0.455698 2.54294 0.124863 -0.127151 -0.983993 174 139 110
0.870956 -0.45777 2.55123 0.297162 0.487725 -0.820865 120 88 61
0.873879 -0.457751 2.55215 0.264874 0.499526 -0.824813 130 99 72
0.8768 -0.4575 2.55369 0.169798 0.293353 -0.940804 158 129 102
0.886929 -0.45964 2.56061 -0.13704 0.731914 -0.667475 127 101 76
0.890766 -0.459089 2.56384 0.404576 0.643676 -0.649615 147 121 96
0.899027 -0.459212 2.57397 0.595576 0.126677 -0.793248 153 132 106
0.90215 -0.460563 2.57513 -0.298478 0.529759 -0.793893 153 132 106
0.907569 -0.459676 2.57358 -0.572376 -0.204363 -0.794116 134 114 88
0.914631 -0.460193 2.57144 0.339932 -0.334461 -0.878967 108 90 67
0.92738 -0.462475 2.58938 0.167276 -0.0697041 -0.983443 92 77 58
0.92999 -0.463839 2.59132 0.20218 0.312656 -0.9281 95 80 61
0.933933 -0.463033 2.59407 0.585332 -0.203371 -0.784874 83 70 52
0.942859 -0.465202 2.60296 0.558496 0.259788 -0.787777 84 73 57
0.945539 -0.465863 2.60521 0.546511 0.195603 -0.814288 72 61 46
0.945603 -0.465866 2.60528 0.545617 0.174768 -0.819609 71 61 45
0.9494 -0.465149 2.60771 0.028139 0.0716276 -0.997034 69 60 45
0.953129 -0.465606 2.60963 0.568385 -0.240428 -0.78685 79 70 58
0.956789 -0.465689 2.61073 -0.141539 -0.370925 -0.917813 94 87 75
0.960542 -0.466171 2.6129 0.519925 0.286537 -0.80472 106 100 88
0.963404 -0.466547 2.6149 0.523159 0.313705 -0.792398 79 74 62
0.967082 -0.465176 2.61863 0.641545 0.0899314 -0.761795 86 82 73
0.969732 -0.466751 2.62107 0.645723 0.11426 -0.754974 71 67 60
0.971742 -0.467807 2.62119 0.121455 -0.384578 -0.915067 65 62 55
0.977016 -0.464085 2.61704 -0.676844 0.36462 -0.63948 35 34 29
0.974718 -0.467006 2.61563 -0.37659 -0.296872 -0.877523 38 36 30
0.649005 -0.453042 2.49236 -0.426894 0.640242 -0.638632 253 251 233
0.646546 -0.452139 2.49229 -0.506024 0.66978 -0.543447 252 249 233
0.671325 -0.451638 2.49465 0.177604 0.0395657 -0.983306 248 240 217
0.674254 -0.451638 2.49517 0.173294 -0.000106141 -0.98487 250 244 225
0.677946 -0.452858 2.49422 0.0975137 -0.362082 -0.927032 225 197 168
0.683034 -0.449589 2.4926 0.528222 -0.244178 -0.81324 253 251 237
0.684218 -0.45234 2.49534 -0.475097 -0.330604 -0.815466 239 228 207
0.690308 -0.450744 2.49766 0.292628 0.53269 -0.79411 249 247 239
0.692896 -0.451559 2.49949 0.10549 0.440924 -0.891324 231 210 185
0.700694 -0.453055 2.50681 -0.137434 0.910625 -0.38971 216 189 157
0.700699 -0.453058 2.50683 -0.136833 0.910693 -0.389763 216 189 157
0.710109 -0.454081 2.515 0.586668 0.0935278 -0.804409 196 154 119
0.709053 -0.45414 2.51386 0.649924 0.204178 -0.732059 185 140 107
0.709108 -0.454166 2.51365 0.640115 0.124397 -0.758141 185 141 107
0.708951 -0.453992 2.51345 0.644276 0.167547 -0.746215 184 140 106
0.704313 -0.452396 2.50559 0.007979 0.621351 -0.783491 173 125 90
0.713016 -0.454354 2.5167 -0.118681 0.195461 -0.973504 225 190 154
0.712855 -0.45437 2.51603 -0.117761 0.149513 -0.981722 223 188 152
0.715746 -0.453769 2.51594 -0.546089 0.20296 -0.812769 239 214 182
0.719271 -0.453624 2.51498 -0.350302 0.273439 -0.895835 242 228 202
0.722416 -0.453868 2.5143 -0.473206 -0.0503593 -0.879511 249 243 223
0.726911 -0.453709 2.51538 0.0509065 0.126449 -0.990666 254 254 247
0.728459 -0.454652 2.51825 0.177124 -0.446907 -0.87687 254 254 243
0.736556 -0.45575 2.52303 -0.532524 0.348747 -0.771228 254 249 228
0.738621 -0.453018 2.5236 -0.493774 0.218673 -0.841647 249 241 218
0.742079 -0.453278 2.52323 0.295105 -0.0457792 -0.954367 253 249 234
0.743179 -0.453448 2.52039 0.52905 -0.388201 -0.75459 253 251 238
0.783478 -0.452243 2.52549 -0.56324 0.293176 -0.772534 253 254 241
0.786631 -0.453591 2.52578 -0.568634 -0.176641 -0.803401 252 251 234
0.788632 -0.451049 2.52458 -0.513657 -0.130234 -0.848054 240 229 207
0.792018 -0.451908 2.52153 -0.714552 -0.106439 -0.691438 251 250 233
0.805585 -0.453372 2.5261 0.588129 0.500388 -0.635387 254 253 236
0.810852 -0.45216 2.53282 0.441659 -0.287971 -0.849712 249 245 223
0.815934 -0.452448 2.53426 -0.160413 -0.400425 -0.902179 247 230 199
0.81998 -0.452665 2.53524 -0.275964 -0.40248 -0.872842 252 253 238
0.826591 -0.451168 2.53543 -0.0907762 -0.086444 -0.992112 254 251 232
0.823946 -0.453268 2.53238 -0.632911 0.568122 -0.525985 254 255 246
0.82877 -0.451146 2.53461 0.192382 -0.0548791 -0.979784 250 244 218
0.828543 -0.450641 2.533 0.157947 0.297335 -0.941618 251 244 220
0.831069 -0.450913 2.53473 0.628196 0.4103 -0.661077 252 247 226
0.831584 -0.450675 2.53341 0.138429 0.229009 -0.963531 253 249 231
0.849035 -0.452059 2.54033 -0.205979 0.628366 -0.750153 254 238 206
0.857106 -0.452968 2.54088 -0.241259 0.181188 -0.953397 192 156 124
0.860316 -0.452764 2.54019 0.150628 -0.0849329 -0.984935 162 128 96
0.866548 -0.450773 2.54071 -0.239166 -0.327554 -0.914061 165 133 105
0.869005 -0.454862 2.54921 -0.469934 -0.440013 -0.765212 135 103 76
0.871936 -0.455316 2.55225 0.502217 0.627408 -0.595095 141 109 82
0.875958 -0.454719 2.55382 0.497381 -0.370039 -0.784655 153 123 96
0.881859 -0.452322 2.55244 0.490148 0.365177 -0.791454 158 129 102
0.88123 -0.455368 2.55434 0.457144 0.225548 -0.860318 142 113 86
0.88787 -0.456832 2.56356 0.581107 -0.241038 -0.777312 170 143 117
0.883836 -0.455101 2.55399 0.493034 0.447355 -0.746184 147 119 93
0.892863 -0.456453 2.56984 0.615159 0.376745 -0.692562 147 123 98
0.896369 -0.457914 2.57113 0.605668 0.419878 -0.675921 144 122 97
0.904545 -0.458413 2.57415 -0.627595 -0.0890355 -0.773432 144 123 98
0.908742 -0.456194 2.57066 -0.437257 -0.36882 -0.82023 150 131 105
0.913248 -0.457469 2.57059 -0.0179081 0.0378661 -0.999122 121 102 79
0.916551 -0.457445 2.57174 0.487742 -0.391275 -0.780392 101 83 62
0.91559 -0.454323 2.5696 0.488379 -0.390405 -0.78043 102 83 62
0.926951 -0.457295 2.58906 0.408992 0.481363 -0.775252 126 111 94
0.926869 -0.459086 2.58849 0.320086 0.25613 -0.912109 110 96 77
0.929458 -0.460417 2.59018 0.54817 0.0741717 -0.833072 88 74 55
0.93227 -0.460293 2.59127 0.57558 0.482451 -0.660264 82 68 50
0.941507 -0.462013 2.60238 0.580281 0.339912 -0.740091 70 60 44
0.944205 -0.462745 2.60504 0.554762 0.243958 -0.795439 59 49 33
0.945708 -0.460182 2.60636 0.228875 0.353722 -0.906916 60 51 38
0.951667 -0.462382 2.60935 -0.444598 0.347494 -0.825579 81 73 58
0.955424 -0.463199 2.61225 0.118844 -0.400775 -0.908436 109 102 90
0.957993 -0.462782 2.61031 0.579988 0.439374 -0.685977 109 103 89
0.964427 -0.46378 2.61569 0.620723 0.146489 -0.770223 94 90 78
0.969307 -0.462908 2.6203 0.553681 -0.221721 -0.802669 47 44 37
0.97093 -0.464035 2.62076 0.0968424 -0.283589 -0.954043 50 48 41
0.973023 -0.461095 2.61697 -0.391314 -0.140585 -0.909456 30 27 22
0.973843 -0.463441 2.61656 -0.272899 0.134869 -0.952542 52 50 45
0.975995 -0.461785 2.61899 0.437171 0.269473 -0.858059 31 29 24
0.979297 -0.460621 2.61793 -0.460863 0.576659 -0.674588 25 25 20
0.660297 -0.446478 2.48186 0.0754027 -0.680288 -0.729056 250 241 216
0.671005 -0.449888 2.49889 -0.434383 -0.430017 -0.791452 253 247 228
0.674296 -0.449493 2.49704 0.558782 0.417331 -0.716657 248 244 225
0.666458 -0.443896 2.47786 0.432528 -0.384307 -0.815615 252 250 238
0.676859 -0.449584 2.49897 0.256078 0.446532 -0.857341 252 252 240
0.68102 -0.446653 2.4952 0.586268 -0.256617 -0.7684 254 254 245
0.684847 -0.4458 2.49038 0.631466 -0.232661 -0.739675 253 254 242
0.689053 -0.446052 2.4947 0.564416 0.0855128 -0.821049 247 241 224
0.687889 -0.447925 2.49572 0.242966 0.417592 -0.875548 253 254 245
0.69291 -0.448824 2.50077 0.0531844 0.511373 -0.857712 218 185 154
0.696322 -0.449807 2.50808 -0.112328 0.901351 -0.418268 180 137 103
0.704322 -0.449743 2.50745 0.0909471 0.730815 -0.676489 165 118 84
0.708707 -0.450808 2.51338 0.588486 0.0485151 -0.807051 202 158 122
0.70869 -0.451792 2.51412 0.638279 0.177824 -0.748985 195 151 115
0.711461 -0.450968 2.5159 0.488774 -0.269759 -0.829657 222 181 143
0.711416 -0.451256 2.51646 0.545187 -0.228733 -0.806506 220 179 141
0.717335 -0.451299 2.51712 0.30763 -0.355107 -0.882759 238 225 203
0.723208 -0.451636 2.51689 -0.441541 -0.0419867 -0.896258 246 243 228
0.72064 -0.451118 2.51591 -0.102303 0.0973785 -0.989976 241 234 216
0.727309 -0.452068 2.52025 0.0227556 0.202261 -0.979067 254 255 247
0.731443 -0.451614 2.52546 0.435419 0.276196 -0.856811 254 255 247
0.735312 -0.452851 2.52447 -0.387794 0.32036 -0.864283 254 254 240
0.736633 -0.449522 2.52225 -0.581256 -0.344277 -0.737303 254 254 244
0.740216 -0.449862 2.52235 -0.726705 0.0949113 -0.680361 254 252 236
0.743597 -0.450344 2.52107 -0.167001 0.66293 -0.729818 253 254 239
0.747771 -0.451206 2.52087 0.56441 0.579935 -0.587467 254 255 247
0.785485 -0.449951 2.52619 0.136298 -0.135777 -0.981319 248 245 225
0.788453 -0.450036 2.52704 -0.258545 0.242072 -0.935177 228 207 181
0.791902 -0.449737 2.52469 0.228088 0.601458 -0.765653 232 211 184
0.794578 -0.448912 2.52646 -0.360527 0.700832 -0.615512 244 225 199
0.796885 -0.448018 2.52433 -0.629039 0.377133 -0.679766 246 231 205
0.809303 -0.450471 2.53216 -0.546385 0.395155 -0.738455 253 252 240
0.812359 -0.449601 2.5332 0.210238 -0.146998 -0.966536 247 232 201
0.817637 -0.44971 2.53368 -0.0186106 -0.484058 -0.874838 242 223 192
0.821006 -0.450114 2.53637 -0.235186 -0.356939 -0.904037 253 254 236
0.823664 -0.451291 2.5364 -0.553053 -0.191798 -0.810769 254 255 246
0.824816 -0.448714 2.53485 0.030416 0.0965202 -0.994866 253 251 236
0.830113 -0.448543 2.53572 0.461586 0.0726656 -0.884115 246 236 213
0.827443 -0.448568 2.53444 0.135886 0.190315 -0.972273 247 241 215
0.832767 -0.448509 2.53695 0.439585 0.495737 -0.749006 253 253 239
0.847367 -0.449339 2.54221 -0.413804 -0.0453296 -0.909237 252 235 207
0.850299 -0.44906 2.53895 -0.428886 -0.238599 -0.871279 247 219 184
0.859419 -0.450113 2.53973 0.179035 -0.308067 -0.934367 177 145 113
0.862208 -0.449773 2.53774 0.199389 0.39525 -0.896672 212 183 151
0.864939 -0.450012 2.53973 0.598236 0.408756 -0.689226 191 158 129
0.875249 -0.451458 2.5541 0.433161 -0.348691 -0.831136 145 114 87
0.874318 -0.451712 2.553 0.226194 -0.275302 -0.934369 149 118 91
0.875828 -0.449058 2.55286 0.153779 0.139045 -0.978273 140 111 84
0.877923 -0.452029 2.55389 0.152149 -0.378816 -0.912879 165 138 111
0.879048 -0.449243 2.55236 0.241599 0.256953 -0.935738 238 226 198
0.889184 -0.453549 2.56419 0.585478 -0.215308 -0.781574 177 152 126
0.883296 -0.449639 2.55365 0.480741 -0.0157534 -0.876721 162 136 109
0.894271 -0.454027 2.57151 0.585245 0.250585 -0.771165 150 127 101
0.897125 -0.454509 2.57247 0.591493 0.310985 -0.743925 139 116 91
0.901754 -0.454853 2.57406 0.151308 -0.66872 -0.727956 158 136 110
0.904755 -0.454234 2.57032 0.119838 -0.509361 -0.852168 147 127 101
0.902963 -0.451555 2.5689 0.101087 -0.078642 -0.991764 162 141 114
0.908602 -0.451405 2.56952 0.582497 0.479241 -0.656525 182 165 138
0.905751 -0.45135 2.56802 0.230673 0.340905 -0.911358 222 207 181
0.907561 -0.454059 2.5697 0.0844231 -0.363667 -0.927695 177 158 132
0.90996 -0.453073 2.56969 0.0301774 -0.0168708 -0.999402 151 133 106
0.918987 -0.455564 2.58506 0.650129 0.213284 -0.729275 116 99 78
0.927655 -0.454607 2.59059 0.470104 -0.253062 -0.845554 118 105 86
0.924772 -0.454652 2.58833 0.617349 -0.0769281 -0.782919 121 107 88
0.923803 -0.45342 2.58689 0.55952 0.185106 -0.807882 106 91 72
0.929767 -0.457293 2.59087 0.493317 0.424122 -0.759447 137 123 106
0.93268 -0.457341 2.59327 0.524256 0.49452 -0.693258 103 91 73
0.939845 -0.458727 2.60132 0.564224 0.281435 -0.776174 67 56 41
0.946826 -0.457915 2.60864 0.4912 0.629154 -0.602401 61 51 40
0.952765 -0.459777 2.60958 0.241921 0.399017 -0.884454 83 75 63
0.950192 -0.457393 2.61163 0.0381324 0.420625 -0.906433 63 55 45
0.955715 -0.459778 2.61064 0.307877 0.410831 -0.858155 133 125 114
0.958583 -0.459794 2.612 0.538635 0.443461 -0.71639 119 112 101
0.9636 -0.460245 2.61564 0.546548 0.229489 -0.805369 89 84 74
0.967491 -0.46038 2.61922 0.152909 0.150643 -0.976691 59 55 47
0.970513 -0.45871 2.61767 -0.375751 0.220828 -0.900026 32 29 23
0.974349 -0.458258 2.61741 0.444426 -0.436434 -0.782311 28 27 21
0.660192 -0.442894 2.47882 0.14815 -0.707311 -0.691203 253 246 223
0.66472 -0.441424 2.47818 0.113086 -0.149673 -0.982247 254 254 246
0.667683 -0.44151 2.47896 0.189308 -0.250082 -0.949538 254 255 247
0.682273 -0.44452 2.49251 0.607023 -0.0792239 -0.790725 254 254 243
0.684088 -0.442918 2.49141 0.64849 -0.198771 -0.734813 253 253 240
0.689047 -0.445544 2.49697 0.231632 0.388562 -0.891833 247 236 212
0.686573 -0.443869 2.49251 0.575232 0.135016 -0.806771 251 247 229
0.689708 -0.443364 2.49659 0.638986 0.173987 -0.749283 227 187 148
0.692913 -0.446235 2.50256 0.335209 0.548952 -0.765693 209 167 132
0.692045 -0.444641 2.50057 0.583521 0.357445 -0.729203 206 160 122
0.704431 -0.448336 2.51511 0.501729 0.560554 -0.658823 178 133 98
0.704507 -0.448231 2.51577 0.501071 0.5439 -0.673127 182 137 101
0.704108 -0.448022 2.51571 -0.124308 0.115697 -0.985475 178 132 97
0.709974 -0.448404 2.51653 0.39949 0.0317813 -0.916187 235 200 165
0.714852 -0.449491 2.52045 -0.386861 0.12397 -0.913767 253 248 232
0.721058 -0.448983 2.51962 0.395189 -0.172578 -0.902243 253 254 247
0.74151 -0.446395 2.52505 -0.158961 0.263262 -0.951538 253 254 245
0.744659 -0.446417 2.52466 -0.569359 0.384429 -0.726667 250 246 228
0.748018 -0.446392 2.52359 0.415729 0.748899 -0.516062 247 240 221
0.751512 -0.446635 2.52714 0.480723 0.539685 -0.691119 250 246 228
0.783647 -0.447646 2.52733 -0.744253 0.163043 -0.647692 254 254 239
0.795363 -0.44532 2.52587 -0.748924 0.166407 -0.641422 248 233 208
0.808074 -0.447492 2.53255 -0.315046 0.218419 -0.923601 252 255 245
0.809774 -0.444695 2.53161 0.0418558 -0.166863 -0.985091 252 252 232
0.813165 -0.446115 2.53207 0.559649 -0.100196 -0.822651 235 205 166
0.819424 -0.447216 2.53438 0.154686 -0.488718 -0.858619 249 238 210
0.821298 -0.444532 2.53402 0.0928627 -0.489165 -0.867233 251 237 206
0.822852 -0.446162 2.53501 0.178855 -0.293034 -0.939224 254 251 230
0.825775 -0.446003 2.53422 0.155393 -0.0375914 -0.987137 250 241 215
0.823541 -0.44628 2.53572 0.069458 -0.436869 -0.896839 254 250 229
0.832218 -0.446319 2.53258 -0.641715 -0.0337573 -0.7662 254 253 239
0.847892 -0.445651 2.53806 -0.224591 -0.247977 -0.942373 245 221 186
0.852645 -0.44591 2.534 0.361843 -0.282004 -0.888563 213 181 144
0.85581 -0.446098 2.53675 0.398094 -0.51624 -0.758299 196 163 127
0.860093 -0.443537 2.53619 -0.0671165 -0.641742 -0.763978 248 227 195
0.864063 -0.443651 2.53702 0.165481 -0.54645 -0.82098 187 156 126
0.87393 -0.448678 2.55281 0.362741 0.0754186 -0.928833 136 105 78
0.875268 -0.446156 2.5537 0.308708 0.034561 -0.950529 154 126 99
0.880316 -0.446806 2.55353 0.206385 0.30817 -0.928674 233 216 188
0.888282 -0.447485 2.56132 0.537254 -0.160558 -0.827997 171 148 120
0.883256 -0.446948 2.55529 0.419982 0.609638 -0.672277 176 150 123
0.890435 -0.450138 2.56423 0.59325 -0.140103 -0.792733 168 145 119
0.896492 -0.447757 2.56906 0.592455 -0.208253 -0.778221 143 118 92
0.897529 -0.449013 2.57095 0.47361 -0.31692 -0.821739 145 121 94
0.904056 -0.448802 2.56783 0.382188 0.508046 -0.771895 237 222 196
0.904866 -0.448093 2.5684 0.179704 0.111917 -0.977334 238 225 198
0.901553 -0.449764 2.56757 0.0991019 -0.0364555 -0.994409 157 137 111
0.901879 -0.448112 2.56823 0.105436 -0.0284332 -0.99402 199 181 155
0.90689 -0.448826 2.56908 0.336649 0.284349 -0.897671 206 190 163
0.911836 -0.451112 2.57487 0.32289 0.564786 -0.759446 117 99 74
0.921057 -0.452778 2.58521 0.534896 0.218683 -0.816127 96 80 61
0.926596 -0.451823 2.59049 0.250422 0.180349 -0.95119 100 85 67
0.922765 -0.450285 2.58685 0.619694 0.0688084 -0.781821 95 80 61
0.93024 -0.452964 2.59189 0.49416 -0.0326029 -0.868759 89 76 59
0.92942 -0.451727 2.59049 0.396685 -0.504091 -0.767159 93 81 63
0.929656 -0.451764 2.59174 0.552104 -0.279072 -0.785685 92 79 62
0.932906 -0.454327 2.5941 0.516749 0.0739071 -0.852941 78 66 50
0.943695 -0.455284 2.60917 0.545423 0.194966 -0.81517 62 53 42
0.94684 -0.455054 2.61149 0.487895 0.628106 -0.60617 50 41 30
0.953164 -0.45615 2.61246 0.12121 0.519196 -0.846016 66 58 49
0.950056 -0.454459 2.61189 -0.0471688 0.549379 -0.834241 58 50 40
0.95619 -0.455371 2.61676 0.39302 0.736319 -0.550789 74 67 58
0.959151 -0.456924 2.614 0.49901 0.142696 -0.854767 80 74 64
0.96233 -0.457183 2.61604 0.415424 0.0407102 -0.908716 87 82 73
0.969134 -0.455921 2.6194 -0.0110001 -0.00501821 -0.999927 26 23 17
0.972221 -0.455904 2.61928 0.0641133 -0.720645 -0.690333 26 24 19
0.659536 -0.439747 2.47748 0.52595 -0.320232 -0.787926 254 252 239
0.662688 -0.439352 2.47865 0.613516 -0.283825 -0.736914 253 252 236
0.687246 -0.442053 2.49585 0.651042 0.182 -0.736899 235 204 169
0.687479 -0.441875 2.49462 0.635897 0.181206 -0.750199 231 197 161
0.699302 -0.445885 2.51642 -0.0465268 0.700932 -0.711709 170 122 88
0.70212 -0.446319 2.5174 -0.293367 0.447839 -0.844616 183 137 103
0.702246 -0.446102 2.51752 -0.314132 0.425616 -0.84863 189 144 109
0.701713 -0.446192 2.51701 -0.336348 0.502597 -0.796408 181 135 101
0.699545 -0.44561 2.51629 -0.254765 0.726693 -0.637976 173 125 90
0.704782 -0.446386 2.51903 0.393669 0.382088 -0.836082 224 179 142
0.704959 -0.446139 2.51911 0.407836 0.436445 -0.801989 228 183 145
0.708372 -0.445963 2.51679 -0.0431527 0.324349 -0.944953 238 199 164
0.708581 -0.44554 2.51666 0.178978 0.232311 -0.956033 237 199 165
0.713542 -0.446425 2.52092 -0.675647 0.294091 -0.676026 251 237 213
0.716149 -0.445774 2.51957 -0.713783 0.201839 -0.670653 246 236 215
0.721549 -0.444108 2.51578 -0.238951 0.0331665 -0.970465 245 236 220
0.737769 -0.445424 2.52378 0.543271 0.040069 -0.8386 254 254 249
0.739824 -0.443603 2.52516 0.549006 0.0582498 -0.833786 253 252 236
0.743255 -0.443223 2.52519 -0.233629 0.626871 -0.74327 249 239 210
0.747137 -0.443521 2.52594 0.463503 0.528034 -0.711579 247 228 197
0.752177 -0.443403 2.52627 0.394323 0.354797 -0.847719 245 220 187
0.754906 -0.443415 2.52761 0.0949365 -0.160667 -0.982432 251 247 234
0.757619 -0.443778 2.52974 0.0731859 -0.337151 -0.938602 253 255 249
0.795758 -0.441829 2.52823 -0.657409 0.410492 -0.63191 247 238 217
0.809758 -0.444074 2.53021 0.390903 -0.2149 -0.894993 251 251 231
0.80865 -0.442191 2.53335 -0.476203 -0.297184 -0.827594 252 253 243
0.808733 -0.442607 2.53362 -0.476525 -0.25143 -0.842441 252 253 242
0.813172 -0.442788 2.53034 0.0890981 -0.519628 -0.849734 233 206 167
0.811343 -0.441375 2.53024 0.340711 -0.157715 -0.926845 251 245 216
0.817131 -0.441238 2.5306 -0.00380729 0.0185148 -0.999821 237 205 166
0.819875 -0.441663 2.53274 -0.0033529 -0.163968 -0.98646 243 220 186
0.824315 -0.443421 2.53394 0.246994 -0.338547 -0.907953 251 240 211
0.829089 -0.44245 2.53329 -0.426053 0.0185715 -0.904508 251 243 221
0.832266 -0.442471 2.53189 -0.590545 -0.0129384 -0.806901 254 254 241
0.843644 -0.44298 2.53904 0.0713386 0.55413 -0.829368 248 239 213
0.846083 -0.442734 2.538 0.119475 0.15463 -0.980722 252 246 220
0.849186 -0.442554 2.53616 -0.578938 -0.393376 -0.714204 237 202 166
0.851864 -0.441548 2.5322 0.0812423 -0.308481 -0.947755 209 176 144
0.855762 -0.442532 2.53328 0.230652 -0.645811 -0.727824 235 211 179
0.857262 -0.440116 2.5315 0.0271327 -0.666984 -0.744578 247 229 196
0.862132 -0.440708 2.53503 0.0422487 -0.46863 -0.882384 196 166 135
0.873782 -0.44356 2.55378 0.0777369 0.0172885 -0.996824 167 137 109
0.871077 -0.443251 2.55197 -0.038062 -0.496138 -0.867409 165 133 106
0.876662 -0.44369 2.55444 0.00336069 0.0507156 -0.998707 216 197 168
0.879641 -0.443686 2.55439 -0.0190992 0.106879 -0.994089 200 176 147
0.880383 -0.444337 2.55396 0.0669446 0.138869 -0.988046 197 173 145
0.886434 -0.445176 2.55995 0.644208 0.229751 -0.729528 153 128 101
0.88318 -0.444177 2.55628 0.655546 0.155912 -0.738885 161 136 108
0.891226 -0.446667 2.56391 0.579336 -0.197509 -0.790797 137 113 86
0.894136 -0.445776 2.56592 0.616726 -0.0252225 -0.786774 126 101 75
0.90339 -0.44551 2.56836 0.105053 -0.0320641 -0.99395 248 240 212
0.908996 -0.446966 2.57299 0.624225 0.113257 -0.772992 173 154 129
0.906267 -0.445417 2.569 0.423472 -0.13178 -0.896273 215 202 173
0.915739 -0.446479 2.5812 0.592923 -0.201306 -0.779691 162 145 123
0.911761 -0.448311 2.57632 0.653849 0.163489 -0.738751 118 100 75
0.91294 -0.445781 2.57772 0.594603 -0.198277 -0.779188 123 106 82
0.917298 -0.449151 2.5826 0.641631 -0.0298773 -0.766432 135 119 96
0.931903 -0.450436 2.59507 0.56513 -0.230764 -0.792071 71 59 43
0.927912 -0.449272 2.59123 0.195688 -0.253826 -0.947248 86 74 55
0.92988 -0.448938 2.59404 0.428559 -0.133787 -0.893554 74 61 45
0.931376 -0.448422 2.59196 0.550692 -0.28914 -0.78303 71 58 42
0.942832 -0.451786 2.60724 0.573007 -0.238535 -0.784069 49 40 28
0.946452 -0.451649 2.60994 0.606308 -0.128575 -0.784767 46 39 28
0.953131 -0.453511 2.61438 0.10426 0.65814 -0.745641 61 53 45
0.951615 -0.450949 2.61481 0.148798 0.697594 -0.700872 50 43 34
0.957192 -0.45263 2.6131 0.317327 0.530486 -0.786058 64 57 48
0.960593 -0.452749 2.6152 0.313128 -0.313983 -0.896306 66 60 52
0.963897 -0.452867 2.61758 0.3906 -0.276268 -0.878127 50 46 39
0.967814 -0.452898 2.61757 -0.0360812 -0.480274 -0.876376 27 24 19
0.686755 -0.439869 2.49962 0.663154 0.247923 -0.70623 243 208 174
0.684696 -0.438627 2.4958 0.310999 0.241796 -0.919138 247 225 196
0.692797 -0.442024 2.51731 0.701111 0.155348 -0.695924 181 134 100
0.703394 -0.440131 2.51967 0.572859 -0.0492085 -0.818176 196 147 110
0.709732 -0.443067 2.52144 0.265106 0.315448 -0.91116 236 192 156
0.714656 -0.443197 2.52277 -0.553734 0.205443 -0.806952 250 241 220
0.711932 -0.443797 2.52354 -0.442821 0.178369 -0.878689 241 213 178
0.719427 -0.441869 2.51837 -0.693154 0.10856 -0.712568 253 253 243
0.737614 -0.442412 2.52439 0.343353 -0.252211 -0.904709 254 254 242
0.739474 -0.44047 2.52509 0.499584 0.0209762 -0.866011 253 251 230
0.744142 -0.441798 2.52785 -0.58192 0.435863 -0.68658 245 219 181
0.74792 -0.441362 2.52805 -0.0309135 0.052634 -0.998135 236 191 149
0.750286 -0.441066 2.52704 -0.384664 0.00711676 -0.923029 237 199 155
0.758112 -0.43962 2.52809 -0.247001 0.0793848 -0.965758 252 255 250
0.795362 -0.438749 2.5294 -0.691509 0.434968 -0.57673 253 254 244
0.797413 -0.43887 2.53057 -0.695048 0.42541 -0.579599 253 254 246
0.810071 -0.439028 2.53203 -0.419981 -0.0181342 -0.907352 254 253 239
0.809852 -0.439477 2.53153 -0.225983 -0.107171 -0.968218 253 254 240
0.812564 -0.438697 2.52989 -0.076924 0.408317 -0.909593 252 241 210
0.812983 -0.438731 2.52818 0.587476 -0.0657363 -0.806568 251 235 202
0.81239 -0.439288 2.53098 0.176503 0.0975939 -0.97945 252 241 210
0.81534 -0.440351 2.53277 -0.286836 0.489033 -0.823754 242 215 178
0.815249 -0.438863 2.53112 0.618792 0.432161 -0.655999 246 219 183
0.821181 -0.439347 2.53427 0.136578 0.480234 -0.866442 249 231 199
0.818362 -0.439145 2.53276 0.214033 0.595065 -0.774653 243 213 176
0.824116 -0.439371 2.53479 0.247123 0.481519 -0.840875 253 239 210
0.832265 -0.437138 2.53277 -0.538353 0.140128 -0.830988 253 250 231
0.829469 -0.438065 2.53369 -0.409309 -0.0700848 -0.9097 254 252 238
0.843716 -0.438964 2.53764 0.655312 0.182497 -0.732981 254 246 217
0.846684 -0.438867 2.53609 -0.301802 0.0711902 -0.950709 250 231 198
0.857422 -0.436186 2.53168 0.548243 0.388908 -0.740392 215 185 152
0.860072 -0.436259 2.5332 0.555858 0.380719 -0.738968 181 150 119
0.871591 -0.439191 2.55164 0.0799346 0.446813 -0.891049 156 127 98
0.878142 -0.441142 2.55478 -0.010653 0.110299 -0.993841 210 187 157
0.880917 -0.441382 2.55598 0.572458 -0.147425 -0.806572 176 150 121
0.887959 -0.442784 2.56226 0.195408 0.352739 -0.915091 164 138 111
0.892389 -0.443285 2.56401 0.610747 -0.145338 -0.778374 137 111 84
0.901894 -0.44289 2.56802 0.09984 -0.0460539 -0.993937 250 243 216
0.908206 -0.443252 2.57047 0.604888 -0.14964 -0.782124 190 173 146
0.906261 -0.440896 2.56827 0.60409 -0.169647 -0.77865 234 221 193
0.904938 -0.442594 2.56761 0.501321 -0.379491 -0.777601 249 242 214
0.911226 -0.442503 2.57573 0.579023 0.30068 -0.757842 154 136 112
0.919767 -0.443169 2.58379 0.470922 0.269891 -0.839876 102 85 64
0.918821 -0.44593 2.58335 0.558739 -0.270736 -0.783908 131 113 92
0.921546 -0.445868 2.58441 0.652523 0.0598606 -0.7554 97 82 62
0.927393 -0.444876 2.59162 -0.0248222 0.26717 -0.96333 93 80 61
0.935614 -0.444876 2.59539 0.344868 0.777937 -0.525243 57 47 34
0.940271 -0.446816 2.60243 0.0976896 -0.130047 -0.986684 57 48 37
0.942995 -0.447398 2.60575 0.497014 -0.376867 -0.781632 51 43 32
0.951559 -0.44833 2.61671 0.419412 0.0676787 -0.90527 42 35 26
0.953412 -0.448809 2.61867 0.0190869 0.220739 -0.975146 46 40 31
0.956375 -0.44874 2.61811 -0.466558 0.193718 -0.863016 62 58 49
0.956357 -0.448722 2.61801 -0.431508 0.202736 -0.879033 62 58 49
0.959578 -0.450302 2.61726 0.015636 -0.00108148 -0.999877 72 68 59
0.965559 -0.450258 2.61784 0.532354 -0.228334 -0.815146 30 26 20
0.962697 -0.450038 2.61629 -0.113869 -0.483927 -0.867669 36 32 25
0.968629 -0.449652 2.61999 0.502004 -0.346434 -0.792449 29 26 21
0.692874 -0.438799 2.51794 0.694874 -0.0321385 -0.718413 163 115 80
0.69805 -0.436431 2.51427 0.156455 -0.702322 -0.694454 186 137 102
0.705345 -0.438736 2.52089 0.548024 -0.381441 -0.744428 204 151 114
0.703653 -0.435828 2.51409 0.508934 -0.423555 -0.749392 205 152 115
0.709551 -0.439506 2.52578 0.173073 -0.100426 -0.979776 210 162 121
0.707766 -0.437477 2.52386 0.257246 0.0558848 -0.964729 214 161 123
0.715903 -0.439824 2.52279 -0.691978 0.326399 -0.643918 249 245 232
0.718567 -0.438823 2.51934 -0.569538 0.334208 -0.750954 253 253 245
0.721618 -0.438415 2.51707 -0.700321 0.291117 -0.651767 253 254 246
0.738252 -0.437881 2.52488 0.161238 0.0257315 -0.98658 254 254 242
0.743769 -0.438593 2.52894 -0.528167 0.186322 -0.828447 252 242 211
0.746459 -0.438699 2.5279 0.0101748 0.0353628 -0.999323 240 200 161
0.749939 -0.438305 2.52593 -0.465823 -0.0656002 -0.882443 237 200 157
0.752383 -0.438946 2.52751 -0.455269 -0.100351 -0.884681 248 228 194
0.75538 -0.439143 2.52685 -0.339474 0.00815617 -0.94058 251 251 241
0.756812 -0.436315 2.52723 -0.300831 0.244546 -0.92179 252 251 242
0.78365 -0.434976 2.52793 0.617522 0.231875 -0.751598 242 224 195
0.787675 -0.437575 2.52949 0.427069 0.30803 -0.850135 249 234 210
0.792261 -0.434738 2.52933 -0.545714 0.311324 -0.777994 253 253 243
0.789244 -0.434907 2.52977 -0.195389 0.129489 -0.97214 246 227 198
0.809917 -0.436597 2.52974 0.337422 0.328244 -0.882271 252 249 231
0.812249 -0.436305 2.53059 0.5061 0.426446 -0.749671 253 241 212
