ply
format ascii 1.0
element vertex 722
property float x
property float y
property float z
property float nx
property float ny
property float nz
property uchar diffuse_red
property uchar diffuse_green
property uchar diffuse_blue
end_header
-0.515288 0.151925 -0.182948 0.874569 -0.174601 0.452375 26 18 11
-0.515917 0.152225 -0.18212 0.693648 0.189978 0.69481 26 17 11
-0.51646 0.152579 -0.181323 0.716717 0.129873 0.685165 25 16 11
-0.516566 0.15239 -0.181254 0.751824 0.0739972 0.655198 25 16 11
-0.520217 0.15351 -0.17926 0.35233 -0.584661 0.730777 47 37 30
-0.520217 0.15351 -0.17926 0.35233 -0.584661 0.730777 47 37 30
-0.521937 0.153262 -0.179076 0.512043 0.0163264 0.858805 42 32 27
-0.523584 0.154008 -0.178163 0.261109 -0.112142 0.958773 28 20 15
-0.545584 0.150782 -0.129009 0.746273 -0.229256 0.624915 87 82 59
-0.545436 0.150325 -0.128119 0.807472 -0.0573863 0.587109 56 48 23
-0.545885 0.150888 -0.127341 0.843835 0.0773316 0.531001 31 23 10
-0.545875 0.150109 -0.126456 0.831976 0.394992 0.389611 36 30 16
-0.552565 0.215481 -0.412964 -0.227847 -0.60524 0.762739 150 30 52
-0.55701 0.217213 -0.414097 -0.112639 -0.405324 0.907207 160 41 64
-0.564252 0.218003 -0.409842 -0.138276 -0.128938 0.981965 154 38 59
-0.562168 0.21808 -0.409396 -0.158705 -0.177906 0.971165 158 41 62
-0.563932 0.217746 -0.409201 -0.137673 -0.124924 0.982568 154 38 59
-0.570386 0.219642 -0.40891 0.85591 -0.215744 0.469971 147 33 54
-0.576671 0.222283 -0.405808 -0.0993252 -0.0721983 0.992432 135 24 44
-0.58732 0.22196 -0.393562 0.584448 -0.0716707 0.80826 85 11 24
-0.588759 0.222704 -0.392031 0.0499923 0.0354938 0.998119 68 9 18
-0.621961 0.235674 -0.397408 -0.118251 -0.375429 0.919277 32 19 7
-0.62514 0.2355 -0.396699 0.120498 -0.787216 0.60479 35 22 10
-0.623042 0.235071 -0.396786 -0.0757571 -0.470308 0.879245 33 21 8
-0.626143 0.23562 -0.395405 0.154375 -0.813723 0.560377 39 26 9
-0.626089 0.235591 -0.395606 0.142739 -0.791285 0.594554 38 24 9
-0.626042 0.236318 -0.393923 0.322586 -0.927927 0.186787 92 76 42
-0.627209 0.235606 -0.392271 0.391818 -0.907943 0.148722 128 111 59
-0.628529 0.236486 -0.391249 -0.0315396 -0.446702 0.894127 147 120 55
-0.629144 0.236049 -0.389836 0.133782 -0.983633 0.120701 147 118 48
-0.629573 0.235021 -0.387292 -0.1374 -0.549525 0.824102 148 119 46
-0.630118 0.235052 -0.386402 0.703688 -0.710423 -0.0110581 148 119 46
-0.629556 0.235637 -0.385045 0.752324 -0.658686 -0.0118982 152 123 50
-0.628739 0.235136 -0.384157 0.984094 0.0208991 0.176416 152 122 50
-0.631472 0.23494 -0.383979 0.624075 -0.781301 -0.00992635 142 113 42
-0.630756 0.234936 -0.383327 0.696863 -0.717093 -0.0126563 143 115 44
-0.632681 0.234945 -0.382785 0.266373 -0.79748 0.541361 140 111 42
-0.631614 0.235746 -0.382548 0.266393 -0.901759 0.340391 141 113 43
-0.633076 0.235844 -0.381691 0.314639 -0.920118 0.233207 138 110 41
-0.63324 0.235727 -0.381638 0.264804 -0.902016 0.340949 139 111 42
-0.634643 0.235542 -0.380402 0.544667 -0.838635 -0.00528368 149 120 51
-0.636067 0.235386 -0.378943 0.541307 -0.803655 0.247235 154 127 57
-0.63764 0.235738 -0.377779 0.240676 -0.611695 0.753594 141 116 48
-0.639127 0.236201 -0.376998 0.374379 -0.544088 0.750872 136 112 47
-0.644445 0.237383 -0.373739 0.535184 -0.71261 0.453614 144 124 58
-0.645941 0.237317 -0.37242 0.347212 -0.549242 0.760117 126 105 43
-0.645842 0.237209 -0.372469 -0.0946062 -0.629264 0.771412 127 106 43
-0.645832 0.237572 -0.372812 0.42458 -0.383064 0.820362 130 109 45
-0.646333 0.237461 -0.371023 0.293019 -0.742902 0.601861 116 95 34
-0.651778 0.239617 -0.371244 0.342425 -0.569873 0.746987 122 106 48
-0.653209 0.240022 -0.370436 0.199384 -0.647598 0.735434 99 81 27
-0.654537 0.240174 -0.370542 0.0515124 -0.510156 0.858538 103 86 32
-0.655315 0.240736 -0.369552 0.30614 -0.661278 0.684828 114 97 44
-0.656678 0.241004 -0.36861 0.285814 -0.685929 0.669188 99 85 33
-0.660771 0.241535 -0.36892 0.551989 -0.16615 0.817131 93 80 34
-0.666533 0.244289 -0.368301 0.419362 -0.265924 0.867998 88 75 32
-0.664682 0.243794 -0.368434 0.0224066 -0.115561 0.993048 84 72 26
-0.66805 0.244829 -0.367819 0.415654 -0.210925 0.884727 64 51 17
-0.674404 0.246849 -0.368269 -0.0292665 -0.273379 0.961461 32 26 13
-0.673815 0.245929 -0.368944 0.158269 -0.087315 0.983528 38 31 15
-0.675052 0.246846 -0.366992 0.432487 -0.550959 0.713722 18 14 6
-0.675128 0.245982 -0.365547 0.198869 -0.2998 0.933044 7 6 2
-0.452783 0.128718 -0.167377 0.163803 -0.751591 0.638967 3 3 1
-0.453096 0.128952 -0.166701 0.212416 -0.679924 0.701843 5 7 5
-0.515136 0.153116 -0.18297 0.5217 -0.221506 0.823871 30 22 16
-0.516122 0.153367 -0.18212 0.770703 -0.0318955 0.636395 25 16 11
-0.517329 0.15287 -0.180398 0.203578 -0.300706 0.931736 40 29 23
-0.518014 0.153123 -0.179626 0.456329 -0.0742177 0.886711 46 37 31
-0.521377 0.153813 -0.178586 0.308213 0.00882837 0.951277 42 33 27
-0.545031 0.15178 -0.129667 0.984024 -0.173998 0.0376977 123 119 98
-0.545582 0.151329 -0.128219 0.623885 -0.0697697 0.778395 47 40 18
-0.552712 0.216528 -0.412913 -0.210974 -0.538429 0.815833 153 34 56
-0.553474 0.216859 -0.412702 -0.206271 -0.316202 0.925996 156 37 60
-0.555615 0.217197 -0.412888 -0.155244 -0.211573 0.964954 160 40 63
-0.558236 0.217462 -0.409512 0.279126 -0.205374 0.938035 162 42 64
-0.559674 0.21804 -0.408939 -0.136544 -0.152703 0.978794 162 42 64
-0.558707 0.217042 -0.40834 0.531651 -0.148333 0.833874 162 42 63
-0.565486 0.220095 -0.409698 -0.142694 -0.143276 0.979342 153 35 58
-0.565266 0.219901 -0.409263 -0.145466 -0.149123 0.97806 153 35 58
-0.568115 0.220181 -0.409181 0.863841 0.00749221 0.503709 150 34 56
-0.567976 0.220585 -0.407469 0.702573 -0.0907947 0.705795 149 32 55
-0.570802 0.221349 -0.408083 0.358875 -0.332283 0.872236 144 30 51
-0.572393 0.221492 -0.40776 0.230221 -0.320474 0.918855 143 29 49
-0.574632 0.222142 -0.405802 0.0625104 -0.192594 0.979286 137 25 45
-0.590849 0.225131 -0.392701 0.0842557 -0.0546297 0.994946 63 8 17
-0.59092 0.22428 -0.392308 0.00428301 -0.0246532 0.999687 54 6 13
-0.591294 0.224349 -0.391424 -0.00613886 -0.00936471 0.999937 46 5 8
-0.594477 0.226342 -0.392165 -0.162728 -0.437373 0.884434 50 10 14
-0.623832 0.236382 -0.396323 0.188017 -0.763265 0.618122 34 21 8
-0.624895 0.236502 -0.39516 0.26817 -0.877358 0.397905 40 25 6
-0.623963 0.236517 -0.395796 0.192534 -0.760275 0.620414 35 22 6
-0.626426 0.236282 -0.390302 0.276903 -0.955696 0.0998464 146 122 57
-0.625739 0.236614 -0.390084 0.237985 -0.961745 0.135679 148 125 59
-0.626897 0.236121 -0.390488 0.110172 -0.938859 0.3262 145 121 56
-0.628142 0.235806 -0.387577 0.0089718 -0.947614 0.319293 146 115 43
-0.628396 0.23656 -0.384689 0.80737 -0.465953 0.361996 157 128 54
-0.628642 0.236029 -0.384433 0.900544 -0.306285 0.308561 155 126 53
-0.62972 0.2355 -0.382826 0.710638 -0.696763 0.0975456 151 123 51
-0.62931 0.235873 -0.383071 0.844499 -0.517746 0.136969 157 128 56
-0.631182 0.235955 -0.382405 0.236174 -0.928103 0.287829 143 115 45
-0.630192 0.236343 -0.381547 0.248082 -0.892231 0.377332 151 122 50
-0.631703 0.236577 -0.380748 0.24924 -0.80004 0.545725 143 113 44
-0.633238 0.23637 -0.379933 0.440882 -0.839425 0.317786 148 118 50
-0.634563 0.236335 -0.378732 0.28531 -0.826779 0.484803 145 118 48
-0.635995 0.236547 -0.377242 0.108717 -0.775785 0.621561 144 116 49
-0.637315 0.236967 -0.376717 0.138305 -0.809256 0.570944 141 114 48
-0.638824 0.237266 -0.375816 0.214768 -0.762394 0.610435 122 99 48
-0.640085 0.237209 -0.375004 0.691678 -0.67338 0.261037 141 118 55
-0.640242 0.237411 -0.373824 0.898383 -0.439196 -0.0038158 137 113 49
-0.645223 0.238952 -0.372891 0.446998 -0.431795 0.783419 131 111 45
-0.644957 0.23871 -0.372964 0.259011 -0.346542 0.901566 131 111 45
-0.644617 0.238849 -0.370429 0.474319 -0.502345 0.72296 132 111 46
-0.648233 0.240263 -0.370931 -0.0169711 -0.164623 0.986211 127 108 44
-0.650256 0.240458 -0.371019 0.491304 -0.870616 0.0254606 119 100 41
-0.651586 0.240817 -0.370154 0.321327 -0.707316 0.629645 107 89 33
-0.653355 0.241559 -0.369027 -0.0342763 -0.595528 0.802603 118 102 47
-0.6619 0.243761 -0.368455 0.00751612 -0.13992 0.990134 102 91 42
-0.665189 0.245431 -0.367943 0.0827264 -0.0430036 0.995644 119 107 52
-0.665383 0.24484 -0.366542 0.389793 -0.396145 0.831342 140 130 76
-0.668189 0.245011 -0.366739 0.00204423 -0.453451 0.891279 53 41 15
-0.668188 0.24501 -0.366739 -0.00103587 -0.449941 0.893058 53 41 15
-0.668317 0.245974 -0.365803 0.24823 -0.417366 0.874178 57 46 23
-0.671976 0.246831 -0.36631 0.120944 -0.424831 0.897157 35 26 14
-0.675639 0.247784 -0.364709 0.0839472 -0.170981 0.981692 6 5 1
-0.677103 0.247331 -0.363969 0.0723638 -0.0690339 0.994986 6 5 2
-0.452302 0.129692 -0.167443 0.712137 -0.576 0.401353 2 3 0
-0.452397 0.129547 -0.166603 0.500688 -0.66531 0.553781 4 5 3
-0.453153 0.129589 -0.166018 0.466864 -0.664654 0.58333 9 8 7
-0.514463 0.154118 -0.182911 0.776047 -0.285929 0.562135 34 25 18
-0.516607 0.154279 -0.180376 0.906205 -0.402229 0.130402 30 21 14
-0.516956 0.153908 -0.179474 0.81817 -0.402054 0.411037 44 35 29
-0.519759 0.154197 -0.178621 0.504221 -0.40401 0.763241 45 34 27
-0.544156 0.152938 -0.130668 0.667177 -0.537474 0.515749 125 121 102
-0.544747 0.152607 -0.129778 0.459099 -0.0501448 0.886969 120 118 100
-0.545518 0.15268 -0.12823 0.602194 -0.146104 0.784867 51 45 24
-0.545845 0.151957 -0.127323 0.884511 -0.0555458 0.4632 27 19 4
-0.739291 0.358369 -0.770077 -0.129564 -0.505674 0.85294 2 2 0
-0.742101 0.359455 -0.770422 -0.310414 -0.409171 0.858034 2 2 0
-0.742956 0.360438 -0.769688 -0.0128359 -0.0222111 0.999671 10 3 2
-0.550264 0.21578 -0.410882 -0.229688 -0.595968 0.769458 153 33 55
-0.551164 0.216832 -0.411516 -0.218153 -0.368568 0.903641 149 28 51
-0.554723 0.217665 -0.411128 0.0474635 -0.372322 0.926889 161 41 64
-0.554171 0.217807 -0.41055 0.127264 -0.208867 0.969628 161 41 64
-0.558183 0.218822 -0.409082 0.423814 -0.0412577 0.904809 161 42 63
-0.562744 0.219855 -0.408831 -0.129362 -0.0999411 0.986548 157 40 61
-0.571119 0.222669 -0.40717 -0.00263315 -0.240852 0.970558 135 23 44
-0.572503 0.222492 -0.406755 0.348448 -0.45206 0.821112 142 28 48
-0.57642 0.224106 -0.40605 0.113024 -0.233247 0.965827 136 25 45
-0.57734 0.224226 -0.406837 0.0865254 -0.339339 0.936676 135 25 44
-0.590071 0.225594 -0.393774 0.105787 -0.223757 0.968887 81 12 23
-0.590762 0.226795 -0.392958 0.074841 -0.0607961 0.995341 73 12 23
-0.59146 0.225993 -0.391825 0.0646427 0.0697154 0.99547 52 7 14
-0.622964 0.237526 -0.395826 0.495827 -0.588675 0.638449 36 23 9
-0.623446 0.237396 -0.393381 0.347961 -0.886738 0.304334 74 58 27
-0.624804 0.237007 -0.391982 0.385348 -0.908341 0.162555 131 113 61
-0.62435 0.23765 -0.389849 0.318311 -0.900071 0.297575 147 126 60
-0.62482 0.23736 -0.389897 0.10415 -0.958091 0.26686 150 127 62
-0.625771 0.237259 -0.388308 -0.0443371 -0.919883 0.389679 153 122 51
-0.626726 0.237288 -0.387711 0.0140982 -0.965661 0.259421 151 118 46
-0.626261 0.237414 -0.385135 0.376818 -0.751881 0.541003 149 117 45
-0.627472 0.237362 -0.384318 0.701883 -0.617502 0.355036 158 129 54
-0.627647 0.236576 -0.385548 0.37209 -0.515279 0.772034 148 117 44
-0.627178 0.236737 -0.385375 0.482955 -0.461928 0.743893 148 117 45
-0.627838 0.237137 -0.384298 0.728447 -0.532343 0.43125 160 130 55
-0.628827 0.236534 -0.382989 0.88384 -0.437171 0.166457 164 134 60
-0.628995 0.237424 -0.381684 0.834959 -0.409302 0.367851 167 137 63
-0.630371 0.2375 -0.380533 0.424498 -0.644125 0.636321 158 127 55
-0.630495 0.237366 -0.380554 0.397043 -0.667503 0.629918 156 126 54
-0.633256 0.237259 -0.378487 0.431523 -0.612765 0.662048 153 123 54
-0.634473 0.237484 -0.37771 0.333063 -0.5799 0.743495 146 117 48
-0.634769 0.237618 -0.377399 0.321306 -0.634814 0.70269 145 117 48
-0.63613 0.237934 -0.376394 0.238686 -0.658483 0.713743 147 120 53
-0.637412 0.238167 -0.375502 0.346256 -0.655096 0.671533 142 117 51
-0.638694 0.238421 -0.37476 0.40284 -0.634466 0.659676 143 119 53
-0.638918 0.238472 -0.374637 0.355916 -0.630904 0.689408 144 121 55
-0.640043 0.238974 -0.373881 0.394649 -0.608948 0.688066 141 118 52
-0.64313 0.239756 -0.372218 0.203918 -0.275088 0.939545 139 116 50
-0.641552 0.239666 -0.371814 0.352342 -0.368606 0.860224 130 107 41
-0.649584 0.242129 -0.370489 0.47134 -0.159959 0.867324 123 103 43
-0.654452 0.242397 -0.367347 0.330421 -0.943654 0.0184253 106 91 37
-0.652015 0.24154 -0.363813 0.539365 -0.83564 0.103879 106 90 38
-0.664461 0.246104 -0.368927 0.13572 -0.0621323 0.988797 95 83 34
-0.667026 0.246915 -0.365817 0.458587 -0.504206 0.731761 66 54 24
-0.665795 0.246102 -0.365636 0.626195 -0.166854 0.761604 83 72 37
-0.672172 0.248177 -0.367205 -0.0213407 -0.465324 0.884883 46 38 22
-0.668436 0.246174 -0.365817 -0.00679711 -0.19919 0.979937 98 86 46
-0.674242 0.248957 -0.366532 0.483959 -0.356882 0.799011 25 20 11
-0.674811 0.24921 -0.364827 0.452603 -0.238571 0.859206 10 8 3
-0.675273 0.248752 -0.363522 0.600321 -0.128848 0.789312 6 5 1
-0.452605 0.130245 -0.165962 0.442388 -0.527654 0.725172 6 7 5
-0.514528 0.154684 -0.182108 0.689972 -0.465511 0.554291 30 22 15
-0.516201 0.154651 -0.181756 0.697793 -0.311239 0.645148 24 17 10
-0.516641 0.154924 -0.179531 0.776763 -0.437913 0.452628 42 33 27
-0.519487 0.155291 -0.178554 0.623517 -0.0101905 0.781744 48 38 30
-0.518734 0.155253 -0.179002 0.214231 -0.277838 0.936435 48 37 29
-0.519154 0.15545 -0.177612 0.597499 -0.00320598 0.801863 45 35 29
-0.519333 0.154571 -0.176799 0.730845 0.0398005 0.681382 35 26 20
-0.544985 0.15329 -0.129001 0.520398 -0.0996398 0.848091 95 93 73
-0.545342 0.153203 -0.127411 0.960301 -0.215361 0.17732 27 22 4
-0.738021 0.360567 -0.770755 -0.191353 -0.151732 0.969722 2 2 0
-0.737078 0.359169 -0.768223 0.122713 -0.732654 0.669447 2 2 0
-0.742384 0.361992 -0.767649 -0.153849 0.0579081 0.986396 2 2 1
-0.551386 0.21818 -0.411321 0.0381243 -0.280182 0.95919 155 35 58
-0.547781 0.215815 -0.408086 0.406492 -0.0475437 0.912416 153 33 54
-0.553203 0.218208 -0.411295 0.343169 -0.314726 0.884976 160 41 64
-0.554161 0.219054 -0.411135 0.329881 -0.133975 0.934467 161 42 64
-0.564158 0.222036 -0.408914 -0.1297 -0.116117 0.984731 157 37 59
-0.570771 0.223868 -0.4072 0.0820116 -0.416625 0.905372 135 25 46
-0.571863 0.224101 -0.406949 0.302482 0.094046 0.948504 143 29 50
-0.573438 0.225184 -0.406621 0.577766 -0.0299426 0.815653 139 25 46
-0.576642 0.225558 -0.40744 0.0924056 -0.118947 0.988591 137 25 45
-0.57675 0.22653 -0.406631 -0.0218304 -0.221785 0.974851 134 22 43
-0.576983 0.22517 -0.405634 -0.16703 -0.276981 0.946246 132 22 43
-0.587652 0.227065 -0.39271 -0.0791902 -0.100594 0.991771 94 15 29
-0.590818 0.228114 -0.392101 -0.0254976 0.00719123 0.999649 64 9 17
-0.593132 0.228535 -0.391966 0.087438 -0.343868 0.934938 50 14 15
-0.62197 0.238492 -0.395939 0.490844 -0.518079 0.700476 36 22 8
-0.622598 0.238208 -0.394127 0.497897 -0.858349 0.123835 52 38 14
-0.621732 0.238707 -0.392661 0.413982 -0.838557 0.354177 77 63 32
-0.622485 0.238371 -0.391191 0.380734 -0.858118 0.344492 122 106 57
-0.622572 0.238181 -0.391205 0.429893 -0.859604 0.276175 122 106 57
-0.622654 0.238524 -0.390889 0.399008 -0.85321 0.335895 129 112 60
-0.62325 0.237813 -0.389669 0.403503 -0.837722 0.367977 143 123 61
-0.62367 0.237906 -0.387913 0.713108 -0.693653 0.1016 152 127 56
-0.62488 0.238047 -0.386664 0.308205 -0.931063 0.195274 153 122 47
-0.626096 0.238418 -0.383753 0.458983 -0.798932 0.388642 145 114 42
-0.627287 0.238511 -0.382689 0.549698 -0.729604 0.40683 156 127 54
-0.627639 0.238248 -0.382451 0.637814 -0.66676 0.385519 159 130 57
-0.62824 0.238391 -0.381397 0.60135 -0.609045 0.517149 159 130 56
-0.629236 0.238444 -0.380463 0.322181 -0.437291 0.839629 162 132 58
-0.629319 0.238293 -0.380427 0.666971 -0.534657 0.518932 163 132 58
-0.630326 0.2385 -0.379368 0.591456 -0.486557 0.642994 160 131 57
-0.630465 0.238376 -0.379382 0.566196 -0.529192 0.631963 159 131 56
-0.631495 0.238559 -0.378668 0.561503 -0.574392 0.595641 154 125 52
-0.633675 0.239143 -0.377082 0.500361 -0.448797 0.740419 152 123 50
-0.634692 0.238796 -0.376066 0.623144 -0.286312 0.727817 145 116 45
-0.637618 0.240141 -0.373972 0.186453 -0.615044 0.76613 149 124 53
-0.639365 0.239917 -0.373519 0.427945 -0.414326 0.803241 149 126 58
-0.640328 0.239722 -0.37259 0.787879 -0.150772 0.597088 139 116 49
-0.646344 0.241275 -0.37021 0.0857484 -0.594174 0.799753 128 106 41
-0.646344 0.241275 -0.37021 0.0857484 -0.594174 0.799753 128 106 41
-0.651149 0.243639 -0.369097 0.916689 -0.399329 -0.0147879 131 114 55
-0.652283 0.242955 -0.36882 0.353417 -0.652918 0.669922 121 105 48
-0.653161 0.24299 -0.367666 0.342356 -0.8835 0.31972 121 104 49
-0.650379 0.241909 -0.361486 0.419374 -0.907185 0.0337725 107 92 40
-0.665969 0.247814 -0.36594 0.0315168 -0.77967 0.625396 84 72 33
-0.666978 0.24813 -0.365864 0.523366 -0.507124 0.684773 75 64 31
-0.668434 0.248348 -0.365084 0.517246 0.151459 0.842328 52 42 16
-0.673505 0.250355 -0.366579 0.119974 -0.645475 0.7543 30 24 10
-0.674496 0.25064 -0.365327 0.4096 -0.535735 0.738388 18 16 7
-0.676029 0.249685 -0.362621 0.111876 -0.145616 0.982995 6 5 1
-0.676542 0.250873 -0.36216 0.22895 -0.000770226 0.973438 6 7 1
-1.04582 0.374948 -0.349624 0.869332 -0.312935 -0.382537 4 7 3
-0.452118 0.130307 -0.166738 0.897726 -0.36795 0.242281 3 3 2
-0.513957 0.155339 -0.181574 0.704936 -0.679933 0.201882 33 25 17
-0.516212 0.155446 -0.180518 0.914497 -0.3555 0.193168 25 19 12
-0.517193 0.155998 -0.178844 0.449707 -0.230639 0.862884 47 37 31
-0.519083 0.155702 -0.176736 0.525162 -0.374033 0.764398 37 27 20
-0.544416 0.154059 -0.129772 0.407085 -0.0312252 0.912856 107 106 88
-0.545333 0.154007 -0.128246 0.890643 0.0041613 0.454685 47 44 22
-0.550892 0.155501 -0.127602 0.390283 -0.221839 0.89357 34 32 18
-0.739504 0.362313 -0.769452 0.202127 -0.184792 0.961767 2 2 0
-0.743682 0.364675 -0.768946 -0.35681 -0.398096 0.845107 2 2 1
-0.551502 0.219124 -0.411288 0.174868 -0.237169 0.9556 156 37 59
-0.556701 0.220834 -0.408753 0.11429 0.079032 0.990299 163 44 66
-0.566884 0.223028 -0.405745 -0.0916061 -0.190514 0.977401 148 32 54
-0.575555 0.226973 -0.407233 -0.023199 -0.215736 0.976176 137 24 44
-0.589462 0.22847 -0.392752 -0.0443936 -0.0259579 0.998677 85 15 26
-0.590261 0.22889 -0.393217 0.285724 -0.142705 0.947627 83 15 26
-0.59138 0.22867 -0.39244 0.140053 0.0280577 0.989746 61 8 15
-0.593664 0.229867 -0.391108 0.791129 -0.467361 0.394574 79 51 45
-0.594366 0.229289 -0.389539 0.548007 -0.792439 0.267821 69 46 38
-0.594167 0.228497 -0.387096 0.551479 -0.779162 0.297955 61 42 33
-0.594146 0.227834 -0.384858 0.769043 -0.565025 0.298864 48 30 23
-0.621318 0.239344 -0.39432 0.507831 -0.813289 0.284021 52 38 17
-0.620601 0.239759 -0.39231 0.420045 -0.813565 0.402087 65 51 26
-0.621471 0.239344 -0.390949 0.327242 -0.800399 0.502268 107 93 52
-0.621462 0.239432 -0.390535 0.352691 -0.797641 0.489263 114 100 57
-0.622118 0.239113 -0.389163 0.444737 -0.779004 0.441998 142 124 67
-0.622466 0.239239 -0.387401 0.800552 -0.51349 0.30894 155 134 66
-0.623026 0.238347 -0.387744 0.730029 -0.651672 0.205868 153 130 60
-0.62346 0.238797 -0.386007 0.785628 -0.564574 0.253072 156 130 54
-0.623345 0.238869 -0.385655 0.835628 -0.529281 0.146925 156 131 55
-0.624775 0.238647 -0.3848 0.489736 -0.798137 0.350909 144 111 38
-0.624588 0.238808 -0.384796 0.538459 -0.77898 0.321328 146 114 40
-0.625797 0.238698 -0.383598 0.349322 -0.802884 0.483064 144 112 42
-0.626953 0.23879 -0.382696 0.584466 -0.682618 0.438671 153 124 52
-0.625871 0.239412 -0.382467 0.459248 -0.813368 0.357104 150 120 51
-0.627911 0.238609 -0.381419 0.642081 -0.570578 0.512029 157 128 55
-0.628332 0.239449 -0.380349 0.46175 -0.495378 0.73579 157 127 53
-0.628286 0.239695 -0.380207 0.420935 -0.560512 0.71319 156 126 52
-0.629412 0.239591 -0.379348 0.557473 -0.588153 0.585918 163 134 59
-0.630543 0.239611 -0.378558 0.448441 -0.555297 0.700389 158 129 54
-0.630535 0.239709 -0.378515 0.41901 -0.549713 0.722666 158 129 54
-0.63418 0.240143 -0.376234 0.694276 -0.305283 0.651754 147 118 43
-0.632847 0.240187 -0.376518 0.110776 -0.678469 0.726229 157 128 53
-0.634869 0.240904 -0.376011 0.975991 0.0880303 0.19923 150 122 48
-0.634869 0.240904 -0.376011 0.975991 0.0880303 0.19923 150 122 48
-0.636748 0.241265 -0.373778 0.532859 -0.345516 0.772451 157 133 60
-0.638249 0.241043 -0.373255 0.250891 -0.438279 0.863114 151 126 55
-0.639492 0.240979 -0.37249 0.404509 -0.422505 0.811087 148 122 52
-0.640724 0.240911 -0.371718 0.413937 -0.439667 0.797087 132 108 40
-0.641884 0.241596 -0.371119 -0.0949758 -0.689703 0.717837 137 113 46
-0.64246 0.242415 -0.371249 0.0146286 -0.170628 0.985227 140 117 51
-0.648379 0.243936 -0.368984 0.348762 -0.330902 0.876852 113 94 32
-0.649856 0.243928 -0.368327 0.370483 -0.360871 0.85587 130 112 53
-0.652308 0.245003 -0.366948 0.552343 -0.796759 0.245139 126 108 52
-0.65224 0.244089 -0.367671 0.448643 -0.739141 0.502384 125 108 52
-0.66311 0.248448 -0.367158 0.649658 -0.474941 0.593613 103 91 41
-0.664132 0.248301 -0.366148 -0.0405909 -0.294493 0.954791 103 92 46
-0.666002 0.248887 -0.365778 0.291129 -0.596058 0.748304 83 71 31
-0.665122 0.249373 -0.365691 0.0938824 -0.127587 0.987374 86 74 30
-0.674122 0.251299 -0.363937 0.0267989 -0.210255 0.977279 11 10 4
-0.675307 0.251029 -0.363021 0.563201 -0.32943 0.757813 7 5 1
-0.674867 0.251764 -0.361682 0.319688 -0.282124 0.904547 7 5 1
-1.04774 0.37828 -0.352712 0.863591 -0.303448 -0.402654 6 7 3
-1.04849 0.378014 -0.353225 0.902469 -0.204454 -0.379141 6 7 3
-0.452244 0.131478 -0.166004 0.600355 -0.172463 0.780917 4 5 3
-0.452258 0.131022 -0.166092 0.932468 -0.204266 0.297957 4 5 3
-0.452903 0.131151 -0.165473 0.622838 -0.151612 0.76752 5 6 4
-0.453893 0.131952 -0.165095 0.908272 -0.342215 0.240689 6 7 4
-0.515908 0.156603 -0.181125 0.859693 -0.118775 0.49681 21 13 7
-0.516262 0.156056 -0.179514 0.882416 -0.240938 0.404093 38 30 25
-0.518839 0.157367 -0.178384 0.342825 0.0809433 0.935906 46 36 28
-0.519016 0.15655 -0.177569 0.609272 -0.195168 0.768569 41 32 25
-0.519452 0.156937 -0.177488 0.250162 -0.134385 0.958833 38 29 22
-0.544266 0.154594 -0.128944 0.433935 0.0346841 0.900276 94 92 73
-0.545604 0.155184 -0.12828 0.711875 0.378533 0.591563 51 49 25
-0.548755 0.155972 -0.127309 0.694359 0.116806 0.710086 43 37 18
-0.734603 0.362634 -0.768652 0.0994659 -0.517926 0.849623 2 2 0
-0.738755 0.363966 -0.767592 -0.202462 -0.878569 0.43258 2 2 0
-0.739164 0.365329 -0.765674 -0.371768 -0.483682 0.792364 2 2 0
-0.550869 0.220767 -0.410392 0.352587 -0.282872 0.892001 158 40 62
-0.554706 0.220814 -0.408949 -0.0795066 0.0254723 0.996509 119 31 47
-0.555968 0.222209 -0.408982 0.304979 -0.0233669 0.952072 165 45 68
-0.557563 0.222259 -0.408578 0.218269 0.00276127 0.975885 163 43 65
-0.562961 0.2237 -0.407867 -0.140724 -0.377514 0.915249 156 38 59
-0.563038 0.22384 -0.408099 -0.147411 -0.377349 0.914263 157 38 59
-0.563447 0.224017 -0.404875 0.249505 -0.501831 0.828199 150 33 55
-0.564961 0.224529 -0.404406 -0.139739 -0.264768 0.954134 149 33 55
-0.566997 0.224396 -0.404548 -0.160381 -0.22599 0.960836 146 31 53
-0.567867 0.225042 -0.403572 -0.0643709 -0.133656 0.988935 143 29 49
-0.576345 0.22852 -0.406762 0.021175 -0.192859 0.980998 133 21 41
-0.577865 0.228282 -0.406375 -0.161003 -0.254836 0.953487 129 20 40
-0.588938 0.2293 -0.393832 -0.0314626 0.00727688 0.999479 93 14 28
-0.587337 0.229676 -0.393027 -0.0744544 -0.0890914 0.993237 95 15 30
-0.590891 0.230244 -0.392724 0.264885 0.0769075 0.961208 73 15 22
-0.593313 0.230716 -0.389429 0.726929 -0.633085 0.26604 78 52 44
-0.594123 0.230299 -0.388086 0.567134 -0.466455 0.678807 68 47 37
-0.594066 0.229612 -0.385815 0.425625 0.0651777 0.902549 57 40 30
-0.62033 0.240391 -0.390591 0.503781 -0.670154 0.545067 56 40 16
-0.621252 0.240178 -0.389016 0.50418 -0.726016 0.467657 118 99 56
-0.622212 0.240174 -0.386421 0.902358 -0.37717 0.208549 155 135 70
-0.623123 0.239586 -0.384762 0.792715 -0.576849 0.1971 159 134 61
-0.624368 0.239534 -0.383168 0.198275 -0.817274 0.541065 148 115 47
-0.626939 0.239799 -0.381526 0.318119 -0.725729 0.610014 154 124 52
-0.626029 0.240278 -0.381241 0.246517 -0.694304 0.676144 156 126 55
-0.626165 0.240339 -0.380964 0.370971 -0.606638 0.703115 155 124 53
-0.627337 0.240485 -0.380086 0.424981 -0.643213 0.636921 149 118 45
-0.628368 0.240612 -0.379386 0.560305 -0.767538 0.311357 158 129 54
-0.628216 0.240786 -0.37913 0.501014 -0.748446 0.434526 158 129 54
-0.62923 0.240844 -0.377872 0.491381 -0.753511 0.436767 158 131 55
-0.630408 0.240618 -0.377334 0.539512 -0.707813 0.455991 156 126 51
-0.635581 0.24139 -0.37446 0.451718 -0.38025 0.807069 161 135 62
-0.635974 0.242384 -0.373543 0.606257 -0.332384 0.722477 159 134 63
-0.637017 0.242135 -0.37258 0.3936 -0.507278 0.766647 159 135 62
-0.638615 0.242873 -0.372591 0.170162 -0.104755 0.979832 156 130 59
-0.639989 0.242899 -0.371915 0.36891 -0.0397293 0.928616 146 120 52
-0.640006 0.242243 -0.370389 0.181874 -0.77792 0.601467 143 117 52
-0.643646 0.243558 -0.370672 0.524663 -0.124348 0.84218 142 120 56
-0.641094 0.243451 -0.370667 0.00689879 -0.125316 0.992093 139 114 50
-0.643677 0.244153 -0.369433 0.902796 -0.334075 0.270839 135 115 51
-0.647055 0.24497 -0.368437 0.173048 -0.204456 0.963459 125 104 45
-0.649006 0.245289 -0.36824 0.356878 -0.423744 0.832514 121 102 42
-0.650567 0.245321 -0.36763 0.992798 -0.0462698 0.110504 143 126 67
-0.650939 0.245908 -0.366652 0.821752 -0.281539 0.495438 133 116 59
-0.651782 0.245688 -0.365573 0.638585 -0.463668 0.614183 116 99 44
-0.660156 0.248873 -0.366293 -0.0843946 -0.464534 0.881525 110 96 43
-0.670113 0.252068 -0.3655 0.221892 -0.32408 0.919639 78 70 40
-0.672077 0.251313 -0.363402 0.74284 -0.372281 0.556413 22 17 7
-0.670648 0.251245 -0.363589 0.762398 -0.296423 0.575224 35 29 12
-0.670971 0.251822 -0.362157 0.615583 -0.343679 0.709185 18 14 4
-0.674524 0.252331 -0.363012 0.672716 -0.36823 0.641763 7 7 2
-1.04462 0.37849 -0.349652 0.859298 -0.318122 -0.400507 6 8 3
-1.04161 0.376233 -0.346774 0.391997 0.230507 0.890621 5 7 3
-0.45158 0.132143 -0.167502 0.43283 -0.476494 0.765253 2 2 1
-0.451677 0.131807 -0.16678 0.450215 -0.281462 0.847399 3 3 2
-0.452088 0.132423 -0.166034 0.587468 -0.136879 0.797588 5 4 5
-0.452087 0.132431 -0.166024 0.594981 -0.140676 0.791333 5 4 5
-0.452731 0.132075 -0.165487 0.589976 -0.144207 0.794439 6 7 5
-0.515805 0.157424 -0.179651 0.962078 -0.229279 0.147775 32 25 18
-0.516759 0.157142 -0.179046 0.497408 -0.180321 0.848569 49 37 32
-0.546909 0.156767 -0.128353 0.622195 0.443281 0.645271 67 62 39
-0.54938 0.157464 -0.127358 0.380695 -0.204896 0.901714 33 28 12
-0.732353 0.363928 -0.7681 0.197192 -0.481296 0.85409 2 2 1
-0.734686 0.364778 -0.766915 0.172349 -0.556128 0.81303 2 2 0
-0.742391 0.36785 -0.766824 -0.368433 -0.489692 0.790227 2 2 2
-0.549406 0.220673 -0.410757 -0.141501 -0.115851 0.983136 151 34 55
-0.556672 0.22371 -0.408724 0.162444 0.0655565 0.984538 164 44 67
-0.557447 0.223244 -0.407657 0.155196 -0.0619185 0.985941 164 44 67
-0.558701 0.224072 -0.40616 0.13667 -0.26657 0.954076 158 39 61
-0.562205 0.225143 -0.40769 0.136979 -0.272348 0.952399 156 37 59
-0.562215 0.225262 -0.407852 0.124475 -0.278889 0.952222 157 37 59
-0.564044 0.225325 -0.404273 0.15103 -0.242771 0.958255 150 33 56
-0.565346 0.22515 -0.403759 0.332348 -0.566731 0.753897 147 31 53
-0.56684 0.225634 -0.404337 -0.0448847 -0.120991 0.991638 144 29 51
-0.584857 0.229685 -0.392851 -0.0627371 -0.0581499 0.996335 105 18 34
-0.589406 0.231576 -0.393421 0.106843 0.0530855 0.992858 84 16 26
-0.592312 0.232803 -0.392638 0.922514 0.200755 0.329644 77 39 36
-0.593029 0.231503 -0.391282 0.962636 0.0776811 0.259418 81 52 45
-0.594438 0.230826 -0.385277 0.550099 -0.329653 0.767281 54 39 27
-0.618685 0.24152 -0.391951 0.639961 -0.62131 0.452132 31 15 4
-0.619487 0.241492 -0.390833 0.434958 -0.629735 0.643619 35 19 5
-0.620326 0.241509 -0.389594 0.45624 -0.6966 0.553709 46 29 9
-0.620636 0.241438 -0.389465 0.541497 -0.650622 0.532421 51 34 11
-0.621282 0.241326 -0.387991 0.780015 -0.524359 0.341503 83 64 27
-0.6221 0.241422 -0.385196 0.917529 -0.314816 0.242964 146 125 66
-0.622266 0.241048 -0.384798 0.916125 -0.346629 0.201406 157 137 73
-0.623221 0.240679 -0.383502 0.7587 -0.477165 0.443495 155 128 56
-0.623923 0.241327 -0.382043 0.722957 -0.597527 0.346836 152 122 50
-0.625034 0.241326 -0.381054 0.493859 -0.658022 0.568427 150 121 49
-0.62724 0.241159 -0.379553 0.731739 -0.677408 0.0753361 149 117 43
-0.628124 0.241898 -0.377586 0.296178 -0.432839 0.851428 160 133 58
-0.631732 0.242145 -0.376213 0.757767 -0.652103 -0.0234686 156 127 52
-0.633088 0.242134 -0.375415 0.208412 -0.207263 0.955828 120 95 41
-0.634776 0.242493 -0.374257 0.277589 -0.37449 0.884704 156 128 56
-0.639288 0.244374 -0.372031 0.294785 -0.141311 0.945057 151 127 56
-0.639489 0.243724 -0.370679 0.451697 -0.210004 0.867103 146 122 54
-0.641896 0.24441 -0.369873 0.0287104 -0.0702901 0.997113 140 118 53
-0.645145 0.245016 -0.368853 0.408925 -0.317266 0.855642 131 109 48
-0.64969 0.246442 -0.368174 0.751236 -0.0594933 0.657347 133 115 55
-0.64802 0.246559 -0.368009 0.364876 -0.191462 0.911157 121 101 42
-0.651147 0.246936 -0.365685 0.603814 -0.565621 0.561678 139 122 66
-0.66216 0.25095 -0.366166 0.249247 -0.377625 0.891782 116 104 53
-0.663574 0.251207 -0.365157 0.088802 -0.101371 0.990878 102 89 43
-0.6694 0.253117 -0.365312 0.101324 -0.446784 0.888885 87 78 45
-0.669853 0.252045 -0.363098 0.909179 -0.402729 0.105844 42 35 17
-0.670362 0.253196 -0.362362 0.564102 -0.435147 0.701739 23 17 7
-0.670754 0.252599 -0.360923 0.039808 -0.217238 0.975307 15 12 4
-0.673096 0.253678 -0.360024 0.514336 -0.389146 0.764214 8 8 2
-0.673094 0.253677 -0.360024 0.427909 -0.430361 0.794785 8 8 2
-1.04817 0.382789 -0.355404 0.106536 -0.976356 0.188092 6 7 3
-1.04665 0.38074 -0.352601 0.95424 -0.264003 -0.140458 7 8 3
-1.04409 0.381186 -0.3497 0.957159 -0.251421 -0.143649 7 7 5
-0.451673 0.132905 -0.166963 0.817317 -0.226974 0.529599 2 2 2
-0.452125 0.132853 -0.165381 0.537338 -0.407176 0.738564 6 7 5
-0.452386 0.132944 -0.165462 0.419805 -0.195885 0.886224 6 7 5
-0.452695 0.132468 -0.164825 0.512652 -0.150183 0.84536 6 7 6
-0.516465 0.158348 -0.179088 0.505364 -0.200646 0.839255 47 35 30
-0.517561 0.158123 -0.178521 0.510797 -0.165396 0.843641 48 36 30
-0.518433 0.158402 -0.178568 0.286934 -0.0366352 0.957249 46 35 29
-0.518433 0.158402 -0.178568 0.286934 -0.0366352 0.957249 46 35 29
-0.726599 0.366183 -0.769195 0.524513 -0.060875 0.849223 2 2 0
-0.731136 0.367183 -0.766671 0.523467 -0.012308 0.851957 2 2 1
-0.730092 0.365314 -0.766008 0.539016 0.0232221 0.841975 2 2 0
-0.730971 0.365797 -0.766844 0.553298 0.115683 0.824912 2 2 1
-0.732667 0.36585 -0.765767 0.53968 0.0633674 0.839482 2 2 2
-0.734589 0.367095 -0.765647 0.318813 -0.580504 0.749249 2 2 2
-0.738918 0.367606 -0.764434 0.145326 -0.672486 0.725702 2 2 1
-0.736972 0.367898 -0.764355 0.41361 -0.625767 0.661318 2 2 2
-0.548246 0.221973 -0.409947 -0.146635 -0.102055 0.983912 151 34 56
-0.550197 0.222274 -0.410808 0.270857 0.0733123 0.959824 154 39 61
-0.55248 0.224444 -0.411653 0.335607 -0.187677 0.923117 159 44 65
-0.5546 0.22472 -0.411737 0.04845 -0.121964 0.991351 160 45 67
-0.56153 0.225844 -0.406409 0.499328 -0.167345 0.850098 155 37 59
-0.564595 0.226966 -0.404615 -0.106632 -0.125499 0.986347 150 33 55
-0.566035 0.22738 -0.404876 0.196295 0.15533 0.968164 147 31 53
-0.567337 0.227052 -0.404008 -0.0884075 -0.223741 0.970631 144 28 50
-0.585752 0.231399 -0.395064 0.134774 -0.0842234 0.987291 106 16 33
-0.586353 0.231576 -0.39447 0.243611 -0.114552 0.963084 103 16 33
-0.592964 0.232291 -0.387946 0.961376 -0.20134 0.187667 78 57 45
-0.594461 0.232541 -0.387361 0.204139 -0.638587 0.74198 64 45 33
-0.594743 0.232507 -0.385951 0.208058 -0.546263 0.811362 60 41 29
-0.619005 0.24272 -0.391137 0.421786 -0.839773 0.341875 31 17 6
-0.620441 0.243005 -0.390427 0.501051 -0.620431 0.603335 39 23 10
-0.620795 0.242688 -0.388702 0.742132 -0.606497 0.285309 52 33 14
-0.620856 0.242647 -0.38857 0.745188 -0.616462 0.254302 54 35 15
-0.621364 0.242431 -0.386628 0.871733 -0.371748 0.319193 78 56 22
-0.621995 0.242145 -0.384641 0.948013 -0.233705 0.215994 137 115 59
-0.622873 0.241564 -0.383222 0.837192 -0.350292 0.420006 158 133 62
-0.625996 0.242018 -0.379404 0.447806 -0.604565 0.658765 145 114 41
-0.626734 0.241984 -0.378262 0.70209 -0.659158 0.269406 157 126 53
-0.63352 0.243523 -0.374681 0.365511 -0.598184 0.713146 157 130 54
-0.63491 0.243639 -0.373251 0.76634 -0.5176 0.380542 158 131 58
-0.635127 0.244322 -0.371803 0.441745 -0.872586 0.208456 159 132 60
-0.636473 0.243857 -0.371944 0.383301 -0.454449 0.804087 156 130 58
-0.639073 0.245312 -0.370759 0.313297 -0.386148 0.867603 151 127 57
-0.640507 0.245273 -0.370107 0.445547 -0.540095 0.713992 139 115 48
-0.643125 0.246723 -0.368997 0.0502839 -0.714596 0.697728 135 113 49
-0.644123 0.246263 -0.368734 0.117449 -0.0231256 0.99281 134 112 50
-0.647047 0.247984 -0.368024 0.34081 -0.346657 0.873887 144 130 72
-0.646202 0.246511 -0.36865 0.237489 -0.0733441 0.968617 140 125 65
-0.648744 0.248034 -0.367444 0.754696 -0.633833 0.169379 137 120 60
-0.650633 0.247593 -0.367074 0.690728 -0.144531 0.708523 143 127 68
-0.650613 0.248217 -0.365942 0.507456 -0.442439 0.739416 135 117 61
-0.658523 0.250069 -0.365639 0.0206438 -0.432342 0.901473 131 118 62
-0.659827 0.251818 -0.365132 -0.0844485 -0.46327 0.882184 116 103 51
-0.659462 0.251584 -0.364809 -0.0768526 -0.428097 0.900459 140 129 72
-0.662608 0.252296 -0.365187 0.606587 -0.582686 0.540859 109 97 48
-0.670193 0.254697 -0.364268 0.173272 -0.409017 0.895925 58 50 27
-0.669682 0.254576 -0.362801 0.300943 -0.29738 0.90609 39 31 17
-0.670396 0.254226 -0.361329 0.145428 -0.268021 0.952374 17 13 5
-1.04487 0.38403 -0.354545 0.633391 -0.699121 0.33173 7 7 4
-1.04516 0.383044 -0.352361 0.733195 -0.673156 0.0963676 7 8 6
-0.451732 0.133869 -0.166718 0.92085 -0.272034 0.279342 2 2 2
-0.451966 0.133402 -0.166061 0.541261 -0.197718 0.817279 4 4 4
-0.451968 0.133403 -0.166053 0.538037 -0.196221 0.819764 4 4 4
-0.452349 0.133705 -0.164923 0.241493 -0.364899 0.899183 8 9 7
-0.452083 0.133478 -0.16478 0.390502 -0.353468 0.85004 8 9 7
-0.453121 0.133503 -0.164449 0.358546 -0.224486 0.906119 8 8 7
-0.51552 0.158634 -0.179696 0.957347 -0.259654 0.126751 31 23 18
-0.517021 0.159228 -0.178498 0.388045 -0.354127 0.850891 49 40 34
-0.518358 0.159286 -0.177989 0.509455 0.0203831 0.860256 43 33 26
-0.518036 0.159369 -0.177024 0.527981 0.0239893 0.848917 40 29 23
-0.72897 0.368699 -0.768745 0.522691 -0.0071362 0.852492 2 2 0
-0.728556 0.367676 -0.768665 0.569238 0.0491829 0.8207 2 2 0
-0.731781 0.36911 -0.766173 0.600853 -0.0077167 0.799322 2 2 2
-0.734555 0.369536 -0.76387 0.64101 -0.281705 0.713967 2 2 2
-0.737565 0.36902 -0.762274 0.620286 -0.407599 0.670155 2 2 2
-0.54946 0.223747 -0.411173 0.210679 0.135704 0.96809 148 34 55
-0.54876 0.223393 -0.41018 0.0274937 0.205573 0.978255 149 34 56
-0.551011 0.224312 -0.411241 -0.0997991 -0.00234464 0.995005 154 40 61
-0.553786 0.225909 -0.410891 0.0542086 -0.0379232 0.997809 161 44 66
-0.554573 0.225827 -0.41074 0.0791085 -0.0136476 0.996773 161 44 66
-0.557455 0.226176 -0.407746 -0.190734 -0.281096 0.940535 161 42 64
-0.561176 0.227482 -0.407826 0.563969 0.547207 0.618469 156 37 59
-0.561816 0.226941 -0.405777 0.393908 -0.0332462 0.918548 154 36 58
-0.562135 0.226938 -0.405299 0.424922 0.123418 0.896777 153 36 57
-0.562249 0.226446 -0.404465 0.408763 -0.0498967 0.911276 152 34 56
-0.56327 0.226775 -0.404379 0.229238 -0.0917428 0.969037 150 33 55
-0.567361 0.228695 -0.405289 0.616224 0.244899 0.748527 145 29 51
-0.567783 0.229451 -0.405488 0.51489 0.347303 0.783753 144 28 50
-0.593816 0.233699 -0.387535 0.343306 -0.252892 0.904537 75 54 42
-0.594338 0.234941 -0.386903 0.460069 -0.0158614 0.887742 74 54 40
-0.618422 0.243497 -0.389866 -0.0244301 -0.18417 0.982591 35 20 12
-0.619101 0.243446 -0.388609 0.395842 -0.591698 0.702284 40 24 14
-0.620459 0.244037 -0.386395 0.821571 -0.335485 0.460945 55 35 18
-0.620591 0.243981 -0.386231 0.828024 -0.338994 0.446608 57 36 18
-0.621377 0.243347 -0.385084 0.93116 -0.267868 0.247363 80 55 21
-0.622046 0.242971 -0.38282 0.940305 -0.255532 0.224791 160 136 74
-0.625441 0.243214 -0.379678 0.748632 -0.662732 -0.0183512 147 118 43
-0.628015 0.244295 -0.377542 0.395243 0.328529 0.857818 160 132 59
-0.630276 0.244243 -0.376585 0.779307 -0.484636 0.397251 164 136 59
-0.630349 0.244947 -0.374586 0.947743 -0.29821 0.113376 162 134 56
-0.631745 0.244724 -0.373954 0.182398 -0.283383 0.941501 158 131 54
-0.633996 0.24503 -0.373448 0.869926 -0.493089 -0.00952977 153 125 51
-0.634143 0.244988 -0.373917 0.860177 -0.509972 -0.00493255 154 126 51
-0.634448 0.245607 -0.371817 0.673943 -0.562932 0.478443 155 127 54
-0.636985 0.245755 -0.372494 -0.0560213 -0.902269 0.427519 154 127 54
-0.637797 0.246472 -0.370407 0.0686483 -0.20751 0.975821 154 129 60
-0.639532 0.246579 -0.36993 0.347781 -0.35065 0.869536 141 117 49
-0.640152 0.246149 -0.368811 0.265135 -0.189057 0.945495 134 111 45
-0.641752 0.247136 -0.368455 0.203387 -0.309101 0.929026 137 114 49
-0.646255 0.249021 -0.367922 0.436384 -0.2998 0.848345 132 112 53
-0.648381 0.249162 -0.366787 0.683219 -0.584658 0.437478 139 124 64
-0.649569 0.249292 -0.3659 0.51816 -0.525442 0.674849 133 116 58
-0.649641 0.24882 -0.364416 0.553113 -0.538839 0.635388 125 108 52
-0.650082 0.248536 -0.362403 0.700548 -0.711506 -0.0546889 115 99 44
-0.657063 0.251183 -0.363991 -0.0233183 -0.547574 0.836432 137 124 66
-0.658763 0.25208 -0.364333 -0.0737854 -0.411342 0.90849 142 129 72
-0.66148 0.253309 -0.365129 0.0613119 -0.0380723 0.997392 107 93 42
-0.663292 0.253637 -0.36449 0.0980478 -0.134454 0.986057 108 95 47
-0.666794 0.254936 -0.364816 0.1956 -0.881215 0.43035 96 85 43
-0.668376 0.254977 -0.364228 0.364835 -0.419073 0.831428 138 128 81
-0.671679 0.256582 -0.36188 0.842567 -0.344921 0.413655 10 8 2
-0.672039 0.256463 -0.362269 0.777642 -0.301883 0.551488 11 9 3
-0.673679 0.256515 -0.361414 -0.0809605 -0.529136 0.844666 7 7 1
-1.04329 0.385854 -0.35462 0.382282 -0.683533 0.621807 5 7 3
-1.0437 0.384788 -0.352391 0.710517 -0.703398 -0.0199211 7 7 7
-1.04306 0.383674 -0.349597 0.75364 -0.337312 0.564135 6 7 7
-1.03448 0.378754 -0.339823 0.690325 0.158575 0.705907 4 5 4
-0.451737 0.134131 -0.167066 0.93053 -0.20474 0.303638 2 2 1
-0.452414 0.134657 -0.166273 0.287792 -0.214265 0.933416 3 3 2
-0.452497 0.134122 -0.165583 0.562548 0.187035 0.805331 6 6 4
-0.452914 0.134194 -0.164823 0.396193 0.204328 0.895143 9 9 8
-0.455185 0.135364 -0.163909 0.617257 0.466916 0.633232 8 7 5
-0.5161 0.159898 -0.179319 0.698881 -0.71516 0.0105817 41 30 26
-0.51842 0.160662 -0.177991 0.395803 0.182979 0.899921 46 35 29
-0.725843 0.369048 -0.769832 0.507707 -0.145576 0.849142 2 2 0
-0.727255 0.369461 -0.767382 0.338981 -0.15334 0.928213 2 2 1
-0.73086 0.370718 -0.767243 0.620794 -0.0868654 0.779146 2 2 1
-0.731045 0.369588 -0.766762 0.53525 0.00606766 0.844672 2 2 1
-0.549231 0.225661 -0.41208 0.523812 -0.0185862 0.851631 148 33 55
-0.550074 0.225572 -0.410956 0.282754 0.0736194 0.956363 151 37 58
-0.550282 0.22526 -0.41109 0.290184 0.0158389 0.95684 152 38 59
-0.550862 0.225209 -0.410993 -0.03764 -0.115011 0.992651 156 42 62
-0.552973 0.225971 -0.411047 0.0813794 -0.0521617 0.995317 162 45 67
-0.552431 0.226184 -0.411383 0.0830369 -0.0996595 0.991551 161 45 66
-0.555275 0.226285 -0.407422 0.335871 -0.726988 0.598899 162 42 65
-0.558792 0.228267 -0.407543 -0.172398 -0.220409 0.960052 158 40 61
-0.562079 0.229189 -0.408302 0.439767 0.442306 0.781646 156 38 59
-0.562725 0.228346 -0.405358 0.580995 0.466168 0.667182 152 34 56
-0.591171 0.23483 -0.387096 0.182277 -0.199945 0.962703 76 54 41
-0.593878 0.235706 -0.385767 0.357771 -0.041695 0.932878 71 50 37
-0.617761 0.245139 -0.389925 0.619009 0.30716 0.722828 35 21 14
-0.617979 0.244367 -0.388556 0.202537 -0.261925 0.943596 39 25 17
-0.619072 0.244052 -0.386194 0.672496 -0.394065 0.626468 45 28 19
-0.620835 0.244969 -0.384817 0.84054 -0.370624 0.395133 65 43 22
-0.62161 0.244586 -0.383525 0.963607 -0.242847 0.111746 113 92 46
-0.621582 0.245188 -0.383082 0.96688 -0.223021 0.124115 117 96 46
-0.622232 0.244199 -0.381133 0.935434 -0.291652 0.199753 175 149 78
-0.624796 0.24419 -0.379404 0.874002 -0.482567 0.057006 152 124 50
-0.625036 0.244996 -0.377211 0.95433 -0.0767027 0.28874 152 124 51
-0.629651 0.245787 -0.376739 0.894467 -0.0909221 0.437793 170 142 65
-0.630155 0.245173 -0.375157 0.854481 -0.245375 0.457879 166 138 60
-0.631048 0.246108 -0.374151 0.451801 -0.193456 0.870891 160 131 54
-0.631091 0.245997 -0.374129 0.37878 -0.257743 0.888872 159 131 53
-0.632318 0.24605 -0.373363 0.474144 0.0570018 0.8786 159 132 56
-0.633768 0.246933 -0.371722 0.745196 -0.275379 0.60733 154 125 52
-0.637782 0.247508 -0.369305 0.50092 -0.865302 -0.0181963 149 124 56
-0.640144 0.247921 -0.36919 0.350096 -0.0885794 0.932516 140 117 50
-0.64115 0.248506 -0.367267 0.0526911 -0.00682558 0.998588 138 116 53
-0.643702 0.248464 -0.367985 0.484491 -0.688105 0.540166 138 116 56
-0.646064 0.250526 -0.368154 0.559922 -0.341017 0.755112 129 109 50
-0.646336 0.250107 -0.366971 0.464487 -0.297945 0.833955 131 113 53
-0.648528 0.25031 -0.365896 0.494967 -0.546739 0.67534 135 117 59
-0.649539 0.249609 -0.360382 0.485571 -0.847116 0.215907 121 105 50
-0.668133 0.256914 -0.363967 -0.0348379 -0.289049 0.95668 74 65 35
-0.668808 0.256224 -0.362923 0.113989 -0.410196 0.904846 52 44 23
-0.669231 0.25648 -0.362809 0.184686 -0.365843 0.912168 44 36 19
-0.670945 0.256841 -0.363291 0.507219 -0.348785 0.788085 27 21 10
-0.67247 0.258082 -0.36166 0.891763 -0.15887 0.423697 8 7 1
-1.0398 0.386667 -0.353831 0.134244 -0.38272 0.914059 6 7 3
-1.04238 0.386677 -0.352508 0.822862 -0.509945 0.250708 6 7 5
-1.04091 0.386602 -0.34875 0.761462 -0.495056 -0.418443 7 7 6
-1.04091 0.386602 -0.34875 0.761462 -0.495056 -0.418443 7 7 6
-1.03483 0.381731 -0.343619 0.847176 -0.339523 -0.408677 7 7 7
-1.03561 0.380992 -0.34179 0.802645 -0.455289 0.385322 5 5 4
-0.45236 0.135139 -0.165897 0.42401 -0.010946 0.905591 3 3 2
-0.452824 0.134867 -0.165192 0.460596 0.290898 0.838588 6 6 5
-0.453115 0.134859 -0.164421 0.559043 0.350007 0.751642 8 8 7
-0.51571 0.160406 -0.179575 0.737858 -0.67416 0.0327648 39 28 23
-0.515312 0.16043 -0.177786 0.636216 -0.686643 0.351783 47 37 30
-0.72755 0.372512 -0.769639 0.603829 -0.109979 0.789491 2 2 1
-0.765747 0.39011 -0.784262 0.00473696 0.333848 0.942615 2 3 1
-0.769219 0.389861 -0.785838 -0.152909 0.191467 0.969515 2 3 1
-0.769871 0.389892 -0.78641 -0.154476 0.187213 0.970097 1 2 1
-0.547001 0.225766 -0.411861 -0.0962853 0.0161221 0.995223 151 34 55
-0.550507 0.226604 -0.41162 -0.0985101 0.00318924 0.995131 152 38 59
-0.550977 0.227117 -0.411081 0.322078 -0.0984008 0.941586 155 41 62
-0.552605 0.227413 -0.411357 0.113422 -0.075359 0.990685 160 43 65
-0.553403 0.227797 -0.411209 0.131827 -0.126571 0.983159 162 44 66
-0.553253 0.227247 -0.410374 0.0818153 -0.0823209 0.993242 162 44 66
-0.56229 0.230898 -0.409284 0.545387 0.562987 0.620967 155 37 59
-0.563401 0.230824 -0.408496 0.454153 0.410223 0.790862 155 37 59
-0.563785 0.230773 -0.407764 0.547772 0.450719 0.704839 153 35 57
-0.564422 0.231608 -0.406803 0.432077 0.526374 0.732284 148 31 54
-0.56518 0.231721 -0.407774 0.546422 0.119192 0.828985 148 31 54
-0.585425 0.235851 -0.393583 0.666728 -0.0569229 0.743124 83 20 27
-0.590274 0.236338 -0.386977 0.184567 -0.192196 0.963844 100 38 42
-0.59361 0.236268 -0.387221 0.615557 0.0146403 0.787956 75 53 40
-0.593302 0.23634 -0.385773 0.752438 -0.325547 0.572588 74 52 39
-0.596025 0.237841 -0.386352 -0.10391 -0.217776 0.970452 84 40 37
-0.617436 0.246294 -0.388617 0.27328 -0.194214 0.942124 41 25 18
-0.617834 0.245398 -0.387369 0.0489296 -0.200584 0.978454 42 27 20
-0.619696 0.24545 -0.386075 0.79307 -0.446109 0.414761 47 31 21
-0.621006 0.245986 -0.383361 0.878826 -0.29655 0.373795 77 55 19
-0.622456 0.245567 -0.379718 0.902397 -0.253321 0.348579 172 146 73
-0.62244 0.245578 -0.379761 0.901206 -0.252691 0.3521 172 146 73
-0.624283 0.246671 -0.379156 0.900968 0.063924 0.42915 168 140 67
-0.625072 0.245716 -0.377727 0.882357 0.0296595 0.469646 151 124 51
-0.629108 0.247437 -0.376524 0.987489 -0.0578995 0.146671 172 145 69
-0.630195 0.247346 -0.374146 0.40664 -0.122546 0.905332 167 139 60
-0.631618 0.24744 -0.373601 0.471678 -0.204509 0.857727 166 138 61
-0.632782 0.247336 -0.372795 0.554927 -0.322175 0.76698 158 130 56
-0.634381 0.248132 -0.37113 0.609979 -0.371612 0.699879 159 131 60
-0.634442 0.248109 -0.371135 0.608627 -0.355734 0.709244 159 130 59
-0.638258 0.248886 -0.369708 -0.000379831 -0.109281 0.994011 147 123 56
-0.63894 0.249555 -0.369206 0.168152 0.199795 0.965302 147 125 58
-0.640082 0.249049 -0.368259 0.775949 -0.15266 0.612044 140 117 51
-0.646647 0.251755 -0.366929 0.678221 -0.1975 0.70782 134 118 58
-0.647575 0.25135 -0.366009 0.873475 -0.0996296 0.476567 142 127 67
-0.648821 0.251593 -0.365137 0.542732 -0.083192 0.835776 128 110 53
-0.663349 0.256178 -0.363899 0.622656 -0.0108273 0.782421 111 98 51
-0.668494 0.258449 -0.363119 -0.0103355 -0.219381 0.975585 48 40 19
-0.668337 0.258559 -0.363652 0.2339 -0.437078 0.868478 60 52 27
-0.669727 0.258144 -0.362544 0.472068 -0.434273 0.767176 25 18 6
-0.670514 0.258779 -0.362984 0.371082 -0.353313 0.858759 85 77 48
-0.67136 0.259323 -0.360836 0.507513 -0.0886257 0.857074 9 7 2
-1.03156 0.384919 -0.353177 0.412165 -0.619742 0.667862 6 6 3
-1.03759 0.38691 -0.35273 0.146239 -0.308268 0.939992 7 8 3
-1.03734 0.386401 -0.34594 0.761641 -0.496466 -0.416443 5 5 2
-1.03689 0.386579 -0.345681 0.483356 -0.873346 0.0602784 7 8 3
-1.03583 0.383401 -0.342165 0.094145 -0.968638 0.229951 6 5 4
-0.45279 0.136223 -0.166538 0.475885 -0.120704 0.871185 2 2 1
-0.453106 0.136288 -0.165679 0.488267 -0.0133952 0.872592 4 4 2
-0.453431 0.135995 -0.165104 0.324065 -0.138161 0.935892 8 8 6
-0.453835 0.136008 -0.164422 0.411974 -0.231166 0.881385 9 8 7
-0.514669 0.161009 -0.179264 0.404616 -0.776683 0.482752 37 27 22
-0.725771 0.37343 -0.769764 0.556675 -0.270387 0.785496 2 2 1
-0.767852 0.392777 -0.786271 0.527122 0.102456 0.843591 10 6 4
-0.769637 0.394045 -0.78599 0.235994 -0.396062 0.887379 3 3 3
-0.544598 0.225765 -0.41161 -0.0983252 0.0163295 0.995021 104 19 33
-0.549618 0.228704 -0.411708 -0.0293088 0.000412092 0.99957 147 37 57
-0.550163 0.228319 -0.410971 0.264218 -0.135379 0.954914 148 37 58
-0.551568 0.228892 -0.411238 0.32293 -0.110204 0.939985 156 44 66
-0.551754 0.228565 -0.411116 0.036609 -0.101783 0.994133 157 44 66
-0.552587 0.229315 -0.411188 0.232549 -0.215287 0.948458 158 44 66
-0.55408 0.228798 -0.4101 0.0445226 -0.914924 0.401162 161 43 66
-0.560997 0.230744 -0.407899 -0.171858 -0.282256 0.94382 155 38 59
-0.560574 0.231779 -0.408961 -0.207229 -0.35672 0.910938 155 38 60
-0.5644 0.232289 -0.408414 0.461359 -0.00629348 0.887192 150 34 56
-0.572119 0.234427 -0.401144 0.953852 -0.235972 0.185696 130 20 42
-0.582718 0.236398 -0.394101 0.536756 0.328303 0.777245 104 24 38
-0.595543 0.238505 -0.38636 0.346474 -0.135397 0.928237 67 45 32
-0.596758 0.239362 -0.38577 -0.00760385 -0.321191 0.946984 66 32 26
-0.618617 0.247655 -0.387689 0.415835 0.0167922 0.909285 44 29 21
-0.620287 0.247782 -0.387116 0.457616 -0.0776155 0.885756 45 31 21
-0.620731 0.247119 -0.385129 0.915484 -0.202984 0.347398 56 36 20
-0.620591 0.247802 -0.383467 0.838671 -0.219947 0.498251 66 45 18
-0.621657 0.246392 -0.381332 0.919541 -0.213707 0.329808 163 139 73
-0.621673 0.24661 -0.381158 0.898487 -0.230762 0.373456 165 141 74
-0.625378 0.247742 -0.377875 0.835274 0.319641 0.447378 157 129 56
-0.629334 0.248975 -0.374874 0.106635 0.115754 0.987537 172 143 64
-0.629542 0.248797 -0.374625 0.214353 0.0342785 0.976155 170 141 62
-0.628921 0.248417 -0.374032 0.979133 -0.182504 0.0893948 171 143 63
-0.630746 0.248662 -0.373574 0.481358 -0.204946 0.852227 172 141 62
-0.632585 0.248827 -0.373102 0.813047 -0.399579 0.423429 163 133 58
-0.633335 0.248474 -0.372068 0.746796 -0.315896 0.58524 156 126 53
-0.634896 0.249211 -0.370434 0.611029 -0.0662431 0.788832 156 129 58
-0.636521 0.249335 -0.370239 0.112602 -0.0677503 0.991328 154 129 59
-0.640659 0.249927 -0.367157 0.0265 -0.060225 0.997833 140 118 53
