ply
format ascii 1.0
element vertex 753
property float x
property float y
property float z
property float nx
property float ny
property float nz
property uchar diffuse_red
property uchar diffuse_green
property uchar diffuse_blue
end_header
0.548261 0.231924 0.807338 -0.469469 0.0560745 -0.881166 44 35 24
0.550837 0.230623 0.806056 -0.366553 0.0575979 -0.928613 42 32 23
0.55015 0.232125 0.806219 -0.375225 0.142246 -0.915954 42 33 23
0.552314 0.230802 0.805839 -0.461628 0.0767982 -0.883743 42 33 21
0.555784 0.229471 0.804761 -0.513406 -0.0408099 -0.857175 39 31 20
0.55703 0.2298 0.804753 -0.519293 -0.0583733 -0.8526 38 30 20
0.563377 0.226129 0.799311 -0.519723 -0.0558897 -0.852505 34 27 17
0.637249 0.197475 0.750751 -0.00921547 -0.745926 -0.665965 14 11 4
0.637454 0.196521 0.75168 0.15262 -0.514209 -0.843977 14 12 6
0.639334 0.196197 0.752744 0.539869 -0.67225 -0.506579 15 12 7
0.641526 0.196638 0.755613 0.406333 -0.81063 -0.421631 14 12 7
0.641528 0.196657 0.755722 0.285494 -0.888755 -0.358619 14 12 7
0.643586 0.197255 0.75853 0.384591 -0.827169 -0.409733 12 11 6
0.643351 0.197471 0.759176 0.405269 -0.811579 -0.420828 12 11 6
0.645266 0.198172 0.762543 0.28444 -0.886698 -0.364499 12 11 5
0.647206 0.198874 0.765981 0.455867 -0.765784 -0.453608 13 10 7
0.648887 0.198247 0.767018 -0.300851 -0.442462 -0.844817 13 10 6
0.650642 0.1982 0.766226 -0.194934 -0.772395 -0.604489 14 10 7
0.672274 0.190462 0.757039 0.349183 -0.856622 -0.379829 7 7 4
0.673527 0.190234 0.758445 0.222774 -0.782167 -0.581882 7 6 4
0.743854 0.179652 0.777807 -0.649123 -0.412889 -0.638876 7 8 4
0.746784 0.177944 0.776179 -0.512715 -0.591031 -0.622741 8 7 6
0.749533 0.177093 0.773872 -0.472457 -0.788649 -0.393467 11 8 7
0.272566 0.222859 0.521777 0.840898 -0.421023 0.340043 7 2 0
0.271907 0.224473 0.524049 0.976956 0.0808631 0.197528 8 4 1
0.450172 0.251155 0.78167 0.0612229 -0.97971 -0.190839 50 43 38
0.547334 0.233666 0.808105 -0.143466 -0.121548 -0.982163 46 38 26
0.55321 0.23248 0.805539 -0.453097 0.106623 -0.885062 42 34 23
0.560638 0.229431 0.801387 -0.519313 -0.0530057 -0.852939 38 29 18
0.562161 0.228424 0.799306 -0.519332 -0.0532101 -0.852914 36 29 17
0.563177 0.227975 0.799311 -0.519765 -0.0562095 -0.852458 36 29 17
0.564184 0.227535 0.799341 -0.471868 -0.125581 -0.87268 33 27 17
0.565543 0.227686 0.798887 -0.532143 -0.0877774 -0.842092 32 27 17
0.638798 0.198072 0.750338 -0.146451 -0.818598 -0.555382 13 12 5
0.639611 0.197745 0.750967 0.143351 -0.79112 -0.594625 13 11 6
0.641531 0.19807 0.75284 0.529546 -0.644628 -0.551394 12 11 6
0.641476 0.197867 0.752954 0.522539 -0.696188 -0.492215 12 11 6
0.643736 0.198584 0.755477 -0.0314399 -0.919182 -0.392575 14 9 5
0.643593 0.198401 0.7558 0.156306 -0.883304 -0.441977 14 9 5
0.643818 0.198475 0.755143 0.298745 -0.854492 -0.424964 14 9 5
0.643605 0.19863 0.755677 0.376513 -0.834127 -0.403076 14 9 5
0.645105 0.198701 0.758419 0.260667 -0.900293 -0.348606 12 9 4
0.651813 0.199116 0.766716 0.632047 -0.487129 -0.602679 12 9 6
0.745186 0.17985 0.776209 -0.560403 -0.427133 -0.709581 8 8 6
0.745662 0.179498 0.776258 -0.613559 -0.4532 -0.646649 8 8 6
0.748188 0.17781 0.773995 -0.578349 -0.669086 -0.46673 8 8 6
0.749628 0.177675 0.772414 -0.48111 -0.697484 -0.531082 12 9 6
0.750439 0.177077 0.772569 -0.44307 -0.760307 -0.474997 13 9 6
0.753588 0.175853 0.770692 -0.592224 -0.418503 -0.688568 8 8 5
0.272644 0.223622 0.518362 0.513069 -0.839806 -0.177442 5 5 0
0.272874 0.223957 0.519807 0.948404 -0.294895 0.116473 5 5 0
0.272895 0.225188 0.521882 0.830472 -0.132348 0.541111 8 4 1
0.416211 0.262031 0.791747 0.177134 -0.927715 -0.328587 44 34 23
0.446096 0.254278 0.783723 -0.102182 -0.77739 -0.620664 61 53 41
0.489618 0.242778 0.779473 0.272853 0.447374 -0.851709 60 54 51
0.549318 0.234437 0.80633 -0.432337 0.138014 -0.891087 31 27 18
0.550125 0.235757 0.8064 -0.315147 -0.0690811 -0.946525 39 33 22
0.552667 0.233933 0.805881 -0.349547 0.155649 -0.9239 32 28 19
0.552707 0.234024 0.805897 -0.303669 0.112418 -0.946122 32 28 19
0.555529 0.234038 0.804293 -0.4784 0.0529095 -0.876547 28 25 17
0.557464 0.232788 0.803892 -0.3196 -0.016532 -0.947408 31 26 20
0.563453 0.229471 0.798408 -0.525843 -0.0716544 -0.847558 36 29 18
0.564374 0.229095 0.798598 -0.51893 -0.0469719 -0.853526 34 28 18
0.746887 0.179787 0.774108 -0.577628 -0.662956 -0.476273 9 8 5
0.74813 0.179227 0.772112 -0.557923 -0.685855 -0.467252 13 9 6
0.747863 0.179568 0.771865 -0.579949 -0.668232 -0.465967 14 9 6
0.749726 0.179122 0.770553 -0.502219 -0.721087 -0.477294 9 7 3
0.75184 0.177456 0.770703 -0.54936 -0.635001 -0.543119 13 7 6
0.273536 0.226214 0.519826 0.990066 -0.0674517 0.123368 5 5 1
0.274423 0.22595 0.522693 0.762372 -0.639172 0.101234 8 5 2
0.418125 0.263544 0.788425 -0.0217512 -0.960497 -0.277438 50 42 34
0.417187 0.26345 0.789515 -0.177569 -0.659014 -0.730869 50 42 34
0.551941 0.23706 0.806038 -0.515002 -0.0744867 -0.853947 30 25 17
0.569113 0.229171 0.795666 -0.530839 -0.0835651 -0.843342 26 22 16
0.74578 0.181389 0.771866 -0.607701 -0.578596 -0.543992 9 8 5
0.744825 0.181592 0.774109 -0.67661 -0.512027 -0.529176 7 7 4
0.751249 0.17903 0.768884 -0.452942 -0.807139 -0.378642 8 6 4
0.273514 0.227365 0.521797 0.779476 -0.564508 0.271564 8 6 2
0.275008 0.228181 0.523121 0.668795 -0.720565 0.183027 6 5 0
0.415993 0.264814 0.784865 0.199352 -0.928563 -0.313098 39 34 24
0.41744 0.265211 0.787029 -0.0856552 -0.509926 -0.855943 44 38 31
0.420241 0.264491 0.786463 -0.339255 -0.356187 -0.870653 41 34 21
0.550444 0.237789 0.806902 -0.268275 -0.14506 -0.952358 39 30 20
0.743065 0.184158 0.774137 -0.401202 -0.516872 -0.756227 6 7 3
0.274373 0.227197 0.517513 0.881464 -0.285399 0.376257 7 4 1
0.2738 0.228558 0.519773 0.988359 -0.0478277 0.144424 4 5 1
0.27379 0.228527 0.51973 0.986372 -0.047337 0.157574 4 5 1
0.274314 0.228507 0.519341 0.843691 -0.424414 0.328722 4 5 1
0.273358 0.229839 0.52192 0.877126 -0.299148 -0.375712 4 4 0
0.274645 0.229353 0.521252 0.722927 -0.681495 0.113762 4 4 0
0.418002 0.265681 0.783955 -0.219983 -0.828249 -0.515375 38 32 22
0.418718 0.265401 0.785924 -0.26446 -0.735477 -0.623807 38 31 22
0.421183 0.264888 0.786699 -0.414059 -0.335644 -0.846108 43 34 22
0.464411 0.258506 0.797872 0.743427 -0.46329 -0.482367 59 52 47
0.552745 0.237955 0.799615 0.361936 -0.905076 -0.223248 33 28 22
0.744574 0.183573 0.771968 -0.496716 -0.755905 -0.426475 7 7 2
0.745381 0.183242 0.769772 -0.527359 -0.738977 -0.419292 9 7 4
0.276719 0.227678 0.514898 0.704598 -0.453154 0.546071 8 5 1
0.275517 0.229168 0.516966 0.877354 -0.0278537 0.479035 8 3 1
0.275529 0.229133 0.516944 0.966421 -0.0582407 0.250277 9 3 1
0.27497 0.230485 0.519172 0.985551 -0.09457 0.140519 5 5 1
0.439499 0.262418 0.785069 -0.425636 -0.354892 -0.832397 48 43 34
0.464859 0.259449 0.796426 0.833257 -0.360392 -0.419285 55 48 44
0.466827 0.260429 0.799682 0.238062 -0.963674 -0.121076 55 49 46
0.475475 0.259176 0.801355 -0.303121 -0.818632 -0.48781 59 54 50
0.477068 0.258722 0.802185 0.144432 -0.639631 -0.754991 60 54 50
0.480104 0.25695 0.802929 0.253153 -0.76055 -0.597894 56 51 50
0.479641 0.258092 0.803817 0.178514 -0.857426 -0.482652 54 49 48
0.493618 0.248317 0.782922 0.772597 -0.553321 -0.311335 52 47 44
0.488205 0.256992 0.805054 0.488461 -0.445971 -0.750011 54 50 48
0.508188 0.248201 0.793775 0.261477 -0.835576 -0.48316 51 44 40
0.743795 0.184969 0.769106 -0.583011 -0.618058 -0.527355 10 8 6
0.274938 0.230541 0.519237 0.988682 -0.086039 0.122905 5 5 1
0.272886 0.232488 0.522287 0.946428 0.11704 0.300956 6 4 1
0.271351 0.233188 0.522927 0.912581 0.0366821 0.407247 7 4 1
0.271895 0.23379 0.524582 0.994841 -0.00325165 0.101398 7 5 1
0.271701 0.234051 0.524483 0.981891 -0.163 0.0965428 7 5 2
0.442326 0.26284 0.780711 -0.310858 -0.754922 -0.57746 48 42 34
0.467638 0.261282 0.795777 0.447051 -0.731756 -0.514469 59 55 50
0.468218 0.260862 0.796324 0.408214 -0.789242 -0.458757 58 53 49
0.477486 0.259039 0.800304 0.325024 -0.701493 -0.634245 55 50 47
0.490794 0.251225 0.779593 0.754656 -0.588322 -0.29047 50 44 43
0.478568 0.258567 0.80066 0.380606 -0.730895 -0.566509 54 49 45
0.479846 0.259596 0.800005 0.465897 -0.580669 -0.667655 53 48 44
0.509147 0.25051 0.794749 0.427904 -0.275945 -0.86067 58 51 45
0.532504 0.253148 0.826411 -0.410688 0.0298921 -0.911286 34 29 24
0.534357 0.253091 0.825472 -0.245056 -0.128866 -0.960906 34 27 22
0.273787 0.233445 0.519948 0.991675 -0.0447071 0.120758 5 5 2
0.274278 0.233197 0.519652 0.988319 -0.107992 0.10753 5 5 1
0.397014 0.288069 0.824072 -0.299881 -0.184341 -0.935997 35 26 20
0.447005 0.261869 0.776267 -0.423333 -0.493618 -0.759691 48 43 37
0.447634 0.26241 0.776617 -0.425298 -0.444295 -0.788494 47 43 37
0.447434 0.262565 0.776906 -0.365761 -0.490738 -0.790819 48 44 37
0.467706 0.262796 0.796668 0.736015 -0.434885 -0.518803 53 49 46
0.467603 0.262846 0.794892 0.356279 -0.774366 -0.522898 52 47 44
0.476465 0.260855 0.797952 0.480158 -0.47557 -0.737076 66 57 52
0.476861 0.260703 0.798148 0.476853 -0.480775 -0.735844 64 56 51
0.490792 0.252005 0.777246 0.238244 -0.937969 -0.251901 57 51 48
0.498692 0.250774 0.779444 0.463615 -0.305169 -0.831825 52 46 43
0.499184 0.251218 0.780466 0.453621 -0.287944 -0.843395 51 46 42
0.501601 0.248957 0.779476 0.690681 -0.626963 -0.360384 49 43 41
0.509472 0.251599 0.793795 0.424627 -0.264547 -0.865856 47 42 38
0.53441 0.255062 0.826218 0.460107 -0.328389 -0.824901 44 36 25
0.27464 0.234356 0.517589 0.879754 -0.0770901 0.469137 7 4 1
0.271252 0.235675 0.522972 0.963331 0.00458996 0.268276 10 4 2
0.271558 0.236552 0.524552 0.977691 -0.18753 0.0946228 7 5 2
0.271518 0.236075 0.524565 0.968691 -0.229491 0.0947215 8 5 2
0.398795 0.288897 0.82517 0.263325 -0.162267 -0.950962 36 27 21
0.400824 0.288908 0.825762 0.369532 -0.09151 -0.924701 34 29 20
0.402574 0.289022 0.826778 -0.200567 -0.319061 -0.926268 33 30 22
0.437124 0.268219 0.785063 -0.359834 -0.144301 -0.92179 46 38 31
0.444794 0.264644 0.775759 -0.414491 -0.473135 -0.777394 42 36 33
0.444794 0.264655 0.775762 -0.420189 -0.466861 -0.778127 42 36 33
0.446546 0.263855 0.776459 -0.43319 -0.400186 -0.807587 42 39 34
0.453782 0.263984 0.784543 0.887498 -0.285581 -0.361649 46 39 35
0.47868 0.254439 0.768052 0.829662 -0.453188 -0.326008 49 42 42
0.472369 0.262326 0.79255 0.295214 -0.831141 -0.471225 57 50 47
0.473048 0.26154 0.791059 0.242039 -0.685271 -0.686892 53 47 44
0.472357 0.262549 0.7915 0.0466659 -0.905219 -0.422375 52 47 44
0.473211 0.262098 0.792571 -0.368225 -0.633139 -0.680842 53 48 44
0.474324 0.26179 0.795943 -0.0168048 -0.818026 -0.574936 54 49 46
0.476085 0.261871 0.796634 0.265284 -0.447018 -0.854283 55 48 46
0.477267 0.261576 0.796812 0.411964 -0.449416 -0.79266 53 47 47
0.480909 0.260686 0.797366 0.229128 -0.595627 -0.769889 52 47 45
0.493366 0.252307 0.778459 0.273957 -0.95017 -0.148742 50 44 44
0.498613 0.252957 0.780232 0.131114 0.530612 -0.837413 50 45 42
0.502337 0.250219 0.778844 0.792923 -0.362305 -0.489906 47 44 39
0.266398 0.234041 0.503179 0.950871 0.309056 0.018141 8 4 2
0.308584 0.219107 0.487801 0.795459 -0.206973 0.569568 6 3 0
0.27363 0.236189 0.519977 0.865079 0.011096 0.501513 9 4 2
0.270565 0.238395 0.523328 0.900235 -0.00209122 0.435399 9 5 2
0.270422 0.238488 0.523369 0.899201 0.0231529 0.436924 9 5 2
0.396779 0.292127 0.825198 -0.407955 -0.228526 -0.883939 35 26 19
0.401969 0.290634 0.825842 0.66872 -0.283398 -0.687386 35 32 22
0.404692 0.290406 0.825661 -0.220972 -0.141989 -0.964889 33 27 19
0.444328 0.265611 0.774609 -0.216749 -0.469622 -0.855847 37 33 25
0.446409 0.265715 0.776322 -0.430109 -0.465884 -0.773278 39 36 29
0.420605 0.283689 0.816908 -0.196882 -0.831603 -0.519302 42 33 28
0.423082 0.282958 0.816954 -0.0732795 -0.486317 -0.870704 42 36 28
0.454628 0.264005 0.775971 0.886053 -0.0730768 -0.457788 40 36 30
0.454921 0.263656 0.779138 0.71549 0.0400724 -0.697473 50 45 37
0.45466 0.265981 0.783006 0.845887 0.0753783 -0.528009 44 40 35
0.454551 0.26551 0.785805 0.609829 -0.124701 -0.782661 55 48 38
0.456082 0.26623 0.786907 0.485288 0.0205258 -0.874113 53 48 41
0.477504 0.254837 0.765508 0.871384 -0.106079 -0.478997 45 40 39
0.477967 0.255851 0.766284 0.773895 0.178482 -0.607644 48 43 40
0.478646 0.255913 0.767151 0.862382 -0.0500184 -0.503781 49 44 41
0.470397 0.262924 0.790411 0.0738131 -0.674903 -0.734205 50 44 42
0.470237 0.264495 0.7919 -0.190743 -0.722578 -0.664453 48 43 39
0.47505 0.261911 0.790737 0.448754 -0.639228 -0.624505 61 53 45
0.479176 0.263761 0.796566 0.489098 -0.3927 -0.778826 49 43 41
0.484066 0.262631 0.796929 0.229616 -0.478052 -0.847787 48 42 40
0.269988 0.232963 0.49765 0.858161 0.0213991 0.512934 4 3 3
0.309465 0.220523 0.489288 0.736047 -0.424038 0.527662 4 3 0
0.271797 0.238517 0.522229 0.795855 -0.240718 0.555581 10 5 3
0.26979 0.239759 0.525483 0.946644 -0.0648076 0.315697 6 5 2
0.400976 0.292253 0.824832 0.635018 -0.0343705 -0.771733 34 28 20
0.402912 0.292511 0.825689 -0.301732 -0.207589 -0.930518 34 31 22
0.407689 0.290362 0.824898 -0.26647 -0.737801 -0.620196 37 31 22
0.418272 0.285978 0.815278 0.0870959 0.0802731 -0.99296 40 33 26
0.423479 0.283559 0.816158 -0.10298 -0.244587 -0.964144 42 35 28
0.455085 0.267403 0.785626 0.390825 -0.458484 -0.798153 50 45 38
0.456917 0.267254 0.786086 0.306042 -0.871764 -0.382577 50 44 39
0.476065 0.256983 0.764079 0.632666 0.224478 -0.741177 48 44 40
0.476591 0.256311 0.764493 0.583408 0.395583 -0.70933 43 41 37
0.477625 0.257625 0.766273 0.862422 -0.0495695 -0.503757 44 41 38
0.480305 0.256856 0.770154 0.64914 -0.731704 -0.20791 48 43 40
0.481264 0.264801 0.796604 0.498882 -0.371365 -0.783074 50 43 43
0.485113 0.264012 0.796366 0.387921 -0.580045 -0.716285 51 48 43
0.50959 0.255429 0.789218 0.222548 -0.461245 -0.858909 46 42 37
0.510504 0.255819 0.790637 -0.0439087 -0.734501 -0.677186 45 40 37
0.510386 0.255216 0.78949 0.0444289 -0.727639 -0.684519 46 41 37
0.270625 0.233734 0.499043 0.852387 0.0239092 0.522364 5 3 3
0.271723 0.23344 0.498463 0.854385 -0.113935 0.506996 5 3 2
0.268152 0.234384 0.500495 0.776789 -0.420201 0.469074 5 3 3
0.268351 0.235923 0.502344 0.883502 -0.135573 0.44838 7 3 2
0.307733 0.222491 0.491798 0.826005 -0.132334 0.547909 5 4 0
0.309191 0.222386 0.491351 0.760567 -0.309546 0.570719 5 4 0
0.273159 0.239313 0.520223 0.900563 -0.0165394 0.434411 8 4 2
0.27306 0.239766 0.519838 0.879481 -0.454782 0.140307 7 4 1
0.273141 0.239408 0.520149 0.858228 -0.315572 0.404795 8 4 1
0.407301 0.292777 0.822828 -0.421988 -0.425764 -0.800407 36 28 22
0.407234 0.292254 0.823433 -0.384918 -0.510787 -0.768723 36 29 22
0.410527 0.290838 0.823077 -0.401968 -0.14245 -0.904505 37 30 23
0.417497 0.288608 0.816875 -0.323995 -0.284299 -0.902331 37 32 26
0.422117 0.285826 0.815875 -0.170493 -0.195024 -0.965866 43 36 28
0.425242 0.285534 0.814783 -0.303146 -0.239599 -0.922331 41 34 27
0.454921 0.268565 0.784152 0.80059 0.165944 -0.575776 44 39 35
0.476215 0.259181 0.76501 0.782977 0.162863 -0.600352 41 40 36
0.476509 0.259393 0.767364 0.775472 0.175982 -0.606361 42 39 37
0.476497 0.259198 0.76744 0.566354 0.406847 -0.716741 42 39 37
0.482052 0.267209 0.79755 -0.392407 -0.671646 -0.628417 46 43 40
0.506933 0.255924 0.782453 0.52756 -0.799997 -0.285806 52 46 39
0.526337 0.249824 0.779207 -0.109882 -0.818434 -0.563996 40 33 26
0.74693 0.169825 0.689975 -0.591716 -0.30868 -0.744708 11 7 5
0.747775 0.168608 0.686936 -0.581878 -0.353804 -0.732285 11 7 4
0.267923 0.237413 0.501246 0.680961 -0.613686 0.399603 8 4 2
0.309296 0.223686 0.490105 0.864075 -0.172097 0.473029 7 3 0
0.274198 0.240811 0.517968 0.732362 -0.586781 0.345448 6 4 1
0.424368 0.287487 0.813844 -0.287695 -0.180868 -0.940488 41 36 28
0.424107 0.287512 0.814173 -0.191434 -0.22026 -0.956472 41 36 28
0.477065 0.261657 0.769274 0.530306 0.430522 -0.730361 43 39 37
0.749009 0.168844 0.686872 -0.528521 -0.350217 -0.773313 12 7 5
0.268184 0.238321 0.499748 0.357191 -0.89957 0.251372 10 4 3
0.308506 0.222845 0.482164 0.515572 -0.735083 0.440271 5 4 1
0.270371 0.238162 0.502296 0.896416 -0.112064 0.428813 5 5 2
0.307988 0.22498 0.488676 0.454389 -0.812545 0.365104 6 3 1
0.308951 0.225573 0.491051 0.78994 -0.230134 0.56836 9 2 1
0.274201 0.24187 0.519705 0.876118 -0.352398 0.328988 10 7 4
0.274475 0.242249 0.519996 0.91264 -0.323621 0.249716 10 6 4
0.274401 0.243069 0.521447 0.790922 -0.564577 0.235997 8 5 2
0.476862 0.267959 0.788857 0.474962 -0.577938 -0.663626 55 49 43
0.479306 0.268321 0.791002 -0.0965372 -0.0622415 -0.993382 49 46 43
0.481183 0.26896 0.792025 0.0847837 -0.616153 -0.78305 44 41 39
0.745739 0.172001 0.69096 0.00314984 -0.549844 -0.835261 8 7 4
0.747417 0.171542 0.689386 -0.626284 -0.31831 -0.711651 8 7 4
0.749139 0.171022 0.687635 -0.639513 -0.0876941 -0.763762 9 9 4
0.310763 0.224062 0.483708 0.533222 -0.714101 0.45358 5 5 2
0.310525 0.225411 0.486684 0.444289 -0.820474 0.359763 6 5 1
0.312231 0.224464 0.486228 0.780808 -0.323499 0.534498 6 5 1
0.308895 0.225801 0.491027 0.794254 -0.282778 0.537771 10 2 1
0.275158 0.243052 0.518297 0.866957 -0.434157 0.244732 10 5 2
0.274621 0.244266 0.51995 0.975788 -0.186784 0.113795 10 6 2
0.274255 0.243543 0.522002 0.781301 -0.468593 0.412299 7 4 1
0.274358 0.243497 0.521918 0.865072 -0.498649 0.0547745 7 5 1
0.475059 0.268388 0.781384 0.0765401 -0.971965 -0.222319 42 40 38
0.478543 0.270452 0.791081 0.695495 -0.556577 -0.454433 49 44 42
0.478313 0.271293 0.789804 0.564249 -0.675952 -0.474037 48 44 41
0.480175 0.2698 0.791847 0.161294 -0.538022 -0.827355 46 43 41
0.481335 0.270601 0.79128 0.32736 -0.510692 -0.795003 44 39 38
0.480205 0.270232 0.792481 0.0956272 -0.601929 -0.792803 46 43 41
0.744785 0.173922 0.690317 -0.58672 -0.152611 -0.79528 11 6 3
0.74624 0.173393 0.689633 -0.66615 -0.158553 -0.728769 12 7 4
0.314337 0.223089 0.478204 0.490365 -0.764254 0.418878 4 5 0
0.312013 0.22357 0.481097 0.673122 -0.706473 0.21864 4 3 1
0.312865 0.223963 0.481249 0.611583 -0.628805 0.480178 4 4 1
0.313621 0.224422 0.482829 0.662167 -0.71832 0.213428 6 4 2
0.312688 0.2254 0.4854 0.767022 -0.294801 0.569886 8 4 2
0.311374 0.226443 0.488532 0.756982 -0.417886 0.502344 7 3 1
0.275116 0.244437 0.520057 0.910424 -0.344978 0.228293 10 6 2
0.477491 0.26912 0.780292 0.0956498 -0.98796 -0.1216 44 40 38
0.480162 0.271321 0.790844 0.163548 -0.44869 -0.878595 47 43 42
0.481071 0.271934 0.789888 0.412941 -0.492006 -0.766427 40 37 36
0.48046 0.272655 0.790541 0.417149 -0.43056 -0.800378 44 40 39
0.511934 0.262044 0.785264 0.710738 -0.136921 -0.690003 42 38 35
0.745829 0.174005 0.687082 -0.272708 -0.917361 -0.289965 11 7 4
0.747771 0.173226 0.688482 -0.626763 -0.395167 -0.671574 13 6 5
0.748806 0.173203 0.687795 -0.659042 -0.0733593 -0.74852 9 6 3
0.269584 0.241325 0.500186 0.887322 -0.288302 0.359919 5 6 1
0.314833 0.224982 0.480656 0.512446 -0.736816 0.441024 5 4 0
0.31325 0.225762 0.484622 0.84162 -0.117434 0.527148 7 2 1
0.312894 0.227152 0.486564 0.769614 -0.27843 0.574605 7 4 1
0.744518 0.175517 0.689478 -0.390706 -0.249571 -0.886038 8 7 3
0.747874 0.173827 0.68575 -0.275728 -0.916984 -0.288295 11 8 4
0.268564 0.243071 0.499277 0.951226 -0.22945 0.206209 7 4 1
0.26988 0.243769 0.500401 0.938683 -0.302747 0.164983 7 5 2
0.269415 0.243908 0.500778 0.894784 -0.106165 0.433694 7 5 2
0.316166 0.225142 0.478551 0.751095 -0.361757 0.552257 5 4 0
0.315165 0.22688 0.482266 0.698936 -0.507729 0.503687 7 3 1
0.31535 0.226269 0.482924 0.699319 -0.643264 0.311712 8 3 1
0.313438 0.228563 0.488165 0.773799 -0.393141 0.496664 9 3 1
0.74622 0.174492 0.683955 -0.34447 -0.803777 -0.48506 7 6 3
0.747732 0.17461 0.683119 -0.137045 -0.834233 -0.534111 9 7 3
0.269801 0.245105 0.502149 0.874858 -0.25103 0.414255 7 5 2
0.317059 0.227262 0.480129 0.685664 -0.589842 0.426558 7 5 1
0.313426 0.228773 0.484737 0.45161 -0.808756 0.376778 5 4 1
0.315596 0.228488 0.484066 0.558625 -0.681272 0.473083 5 5 1
0.743164 0.176324 0.682138 -0.481999 -0.779877 -0.399335 14 7 5
0.746097 0.175744 0.681697 0.111533 -0.922471 -0.369604 9 9 6
0.748761 0.175255 0.682594 -0.150709 -0.802182 -0.577746 9 8 4
0.271041 0.246079 0.50014 0.870389 -0.257452 0.419692 7 5 3
0.271202 0.245771 0.500109 0.886057 -0.375901 0.271295 7 5 3
0.319571 0.227221 0.477654 0.353755 -0.897862 0.262109 7 5 1
0.318779 0.227213 0.477889 0.54209 -0.713293 0.444243 8 5 1
0.74454 0.176516 0.680721 -0.514051 -0.696276 -0.500951 10 7 5
0.748164 0.175229 0.679053 -0.713979 -0.173103 -0.678431 9 8 4
0.748158 0.175237 0.679075 -0.710433 -0.181009 -0.680089 9 8 4
0.747768 0.175775 0.680519 -0.22615 -0.75342 -0.617426 10 8 4
0.271062 0.247068 0.498716 0.816682 -0.492883 0.300162 6 4 2
0.271432 0.247401 0.498544 0.798326 -0.53795 0.270713 6 4 2
0.27216 0.247871 0.500081 0.82488 -0.299341 0.47955 4 5 2
0.318479 0.229304 0.480251 0.871784 -0.105788 0.478332 3 4 0
0.642005 0.229031 0.76087 -0.0615587 -0.522002 -0.85072 9 7 3
0.645242 0.228862 0.760294 -0.52054 0.114559 -0.846117 7 7 3
0.648865 0.226419 0.757638 -0.518018 -0.0385213 -0.854502 12 8 4
0.650824 0.225328 0.756632 -0.487214 -0.0606942 -0.871171 11 8 4
0.744843 0.177225 0.678704 0.0895515 -0.935868 -0.340782 7 8 5
0.746114 0.176678 0.679896 -0.278397 -0.841375 -0.463231 8 8 4
0.747602 0.176995 0.678988 0.424933 -0.260242 -0.86701 10 8 4
0.271568 0.248623 0.500238 0.344258 -0.904012 0.253474 5 5 1
0.271655 0.249524 0.502137 0.788363 -0.219738 0.574629 6 5 1
0.641814 0.230648 0.760446 0.537652 0.216812 -0.814815 8 6 2
0.643749 0.229404 0.759649 0.63579 -0.335241 -0.695259 6 6 3
0.643858 0.230276 0.761096 -0.329018 -0.769262 -0.547708 6 6 2
0.645233 0.229213 0.761173 -0.542603 0.0728324 -0.836825 7 6 3
0.653718 0.224626 0.753126 -0.439862 -0.126118 -0.889166 8 7 3
0.744947 0.178242 0.677017 0.0715248 -0.942938 -0.325195 7 7 3
0.746417 0.177422 0.677479 -0.222064 -0.730886 -0.645363 7 6 3
0.271441 0.249726 0.499082 0.796875 -0.560681 0.225005 8 5 2
0.271806 0.249786 0.499014 0.825495 -0.516417 0.227753 9 6 2
0.27244 0.250756 0.500408 0.824873 -0.103978 0.555673 8 5 1
0.272687 0.250604 0.500676 0.924486 -0.320175 0.206914 8 5 1
0.273053 0.250628 0.500536 0.853008 -0.471762 0.2232 8 5 1
0.273407 0.250531 0.50215 0.339109 -0.908118 0.245614 8 5 1
0.628215 0.233887 0.755093 0.245495 -0.80486 -0.540309 9 9 5
0.635146 0.231851 0.755837 -0.173431 -0.413095 -0.894021 8 9 5
0.648216 0.22975 0.758059 -0.554062 0.0529956 -0.830787 11 10 6
0.649931 0.228262 0.757098 -0.405137 0.0176843 -0.914085 11 10 6
0.654719 0.226128 0.751233 -0.126688 0.269523 -0.954624 10 9 4
0.65457 0.226367 0.752285 -0.370174 -0.017816 -0.928792 8 5 3
0.746427 0.178565 0.676129 0.131175 -0.920716 -0.367525 11 6 4
0.273061 0.251683 0.502531 0.482781 -0.8569 0.180679 9 5 1
0.628015 0.235157 0.752633 0.112323 -0.0265098 -0.993318 11 8 5
0.628286 0.23473 0.752317 0.65 0.0850323 -0.755162 9 8 5
0.630743 0.235183 0.753958 0.495323 -0.794273 -0.351832 9 6 2
0.633124 0.233457 0.754415 0.660394 -0.00626218 -0.750893 8 7 4
0.649744 0.229341 0.755626 -0.253997 -0.696305 -0.671301 10 9 6
0.653751 0.227888 0.751795 -0.191725 -0.520948 -0.831778 11 9 6
0.653697 0.228092 0.752299 0.0159029 -0.172304 -0.984915 8 7 3
0.27135 0.253691 0.501707 0.907306 -0.393265 0.148788 8 5 1
0.27159 0.253798 0.501818 0.505275 -0.859713 0.0747651 8 5 2
0.271899 0.254756 0.503574 0.549303 -0.7736 -0.315926 8 6 2
0.629686 0.235229 0.752999 0.0758968 -0.281737 -0.956485 7 7 2
0.630847 0.235311 0.75356 0.43587 -0.843489 -0.313915 9 6 2
0.635471 0.234509 0.755156 0.306336 -0.547103 -0.778997 8 7 4
0.649984 0.231023 0.756927 -0.565195 0.00578192 -0.824937 10 9 6
0.655063 0.228701 0.752757 -0.417199 -0.0812154 -0.905179 7 5 2
0.655246 0.228548 0.753088 0.176972 0.396979 -0.900604 7 5 2
0.654995 0.228832 0.753261 -0.132823 0.381718 -0.914686 8 7 4
0.627944 0.237725 0.752191 0.65099 0.0822677 -0.754615 11 8 6
0.628431 0.237208 0.751289 0.699662 -0.191603 -0.688304 10 8 5
0.632908 0.237168 0.753432 0.701892 -0.0730037 -0.708533 9 7 4
0.63318 0.236382 0.754353 0.647709 0.0784383 -0.757839 7 8 4
0.635808 0.236576 0.755369 -0.385174 0.279189 -0.879599 10 7 4
0.653473 0.231154 0.754363 -0.346431 0.0505763 -0.936711 7 8 3
0.654038 0.230351 0.753194 0.173194 0.413097 -0.894066 8 7 3
0.627294 0.238918 0.74916 0.73114 -0.223791 -0.644478 10 9 6
0.627333 0.238436 0.748776 0.71712 -0.11692 -0.687073 10 8 6
0.63225 0.237626 0.751072 0.672676 -0.545956 -0.499439 10 8 4
0.631964 0.237979 0.751534 0.653546 -0.586749 -0.478124 11 8 4
0.637007 0.238382 0.755732 0.559252 0.207943 -0.802495 8 6 3
0.638086 0.237269 0.756213 0.6301 -0.262545 -0.730783 8 6 2
0.652411 0.233129 0.754978 -0.540397 0.0867637 -0.836925 10 8 6
0.654342 0.233285 0.754573 0.514579 0.143392 -0.845368 7 6 3
0.637202 0.239296 0.755169 -0.121155 -0.753518 -0.646168 9 5 2
0.870898 -0.200582 1.07967 -0.347929 0.91396 -0.208862 16 13 11
0.870798 -0.20042 1.08255 -0.581324 0.322192 -0.747165 15 12 10
0.872772 -0.199801 1.08037 -0.746866 0.446505 -0.492773 16 12 10
0.866466 -0.197677 1.0875 -0.229518 0.848334 -0.477127 2 3 1
0.871741 -0.198588 1.08765 -0.192956 0.829404 -0.524268 4 2 0
0.875343 -0.197607 1.08065 -0.638613 0.691831 -0.336962 12 9 7
0.659375 -0.111418 0.677236 -0.882964 0.0551836 -0.466186 9 10 7
0.890821 -0.195502 1.07582 -0.672469 0.734308 -0.092613 11 9 11
0.893266 -0.195561 1.07378 -0.535419 0.736362 -0.41364 15 12 13
0.653101 -0.112082 0.688369 -0.977745 -0.0784201 -0.194591 16 15 14
0.657972 -0.111293 0.682641 -0.827497 0.0692161 -0.557187 14 14 10
0.658448 -0.110166 0.681366 -0.833864 0.00787074 -0.551915 14 13 10
0.659088 -0.110188 0.678857 -0.827496 0.0894391 -0.554302 11 11 7
0.866893 -0.195513 1.09268 -0.151845 0.851764 -0.50144 7 6 7
0.872534 -0.195137 1.09295 -0.353337 0.847843 -0.395367 1 2 1
0.870797 -0.195785 1.08974 -0.145245 0.836729 -0.528004 1 3 1
0.65644 -0.109999 0.684538 -0.836378 -0.0385986 -0.546793 16 15 12
0.888604 -0.193287 1.08317 -0.81077 0.580213 -0.0774888 11 9 10
0.891278 -0.19269 1.08244 -0.68862 0.583011 -0.431162 9 9 9
0.891123 -0.192656 1.08211 -0.758408 0.565477 -0.32412 9 9 9
0.89183 -0.191889 1.07851 -0.804661 0.58944 -0.0712769 9 9 9
0.892695 -0.19188 1.07831 -0.877668 0.102824 -0.468108 8 8 7
0.893198 -0.192252 1.07999 -0.696274 0.685842 -0.211712 9 9 9
0.494494 -0.237766 1.44156 -0.703765 -0.24561 -0.666626 6 6 3
0.580222 -0.141305 0.88666 -0.635905 0.402615 -0.658426 7 7 5
0.891435 -0.190725 1.08507 -0.661044 0.569092 -0.489035 10 10 11
0.891067 -0.190643 1.08468 -0.814099 0.484929 -0.319511 10 10 11
0.893668 -0.190506 1.08323 -0.755039 0.45485 -0.472257 15 14 13
0.892994 -0.189751 1.08235 -0.76014 0.645492 -0.0743442 8 10 10
0.893288 -0.19005 1.07396 -0.755797 0.650582 -0.0742528 9 8 11
0.893307 -0.190076 1.07399 -0.742855 0.665213 -0.0752147 9 8 11
0.893803 -0.188529 1.08581 -0.727596 0.573353 -0.376656 8 9 11
0.894892 -0.186157 1.08133 -0.872749 -0.32045 -0.368269 7 10 10
0.892362 -0.184821 1.07176 -0.986767 0.149444 -0.0629061 7 9 10
0.895053 -0.184485 1.07093 -0.535032 0.246898 -0.807949 8 9 10
0.0810471 -0.344379 2.21805 -0.59883 0.086797 -0.796159 8 7 6
0.376532 -0.188558 1.24061 0.695808 0.441456 -0.566539 4 5 4
0.376532 -0.188558 1.24061 0.695808 0.441456 -0.566539 4 5 4
0.379652 -0.187603 1.23416 0.792104 0.476434 -0.381553 4 4 3
0.379652 -0.187603 1.23416 0.792104 0.476434 -0.381553 4 4 3
0.895569 -0.181637 1.06953 -0.505885 0.21102 -0.836392 14 12 12
0.0724059 -0.339285 2.22307 -0.481826 0.601325 -0.637379 6 5 4
0.0796704 -0.33942 2.21632 -0.545598 0.159543 -0.82272 7 8 7
0.0787615 -0.338557 2.21572 -0.488123 0.233576 -0.840939 7 8 7
0.583218 -0.13469 0.888728 -0.67916 0.460143 -0.571848 8 9 6
0.0763284 -0.334083 2.21823 -0.291563 -0.0675708 -0.954162 7 6 6
0.0753235 -0.333107 2.22152 -0.492373 -0.0461597 -0.869159 7 6 6
0.582951 -0.134033 0.899611 -0.9318 -0.0599182 -0.357991 8 8 6
0.583802 -0.132913 0.89739 -0.89341 -0.137018 -0.427837 7 9 5
0.586204 -0.132421 0.894162 -0.671568 0.189531 -0.716292 7 7 5
0.360672 -0.07089 0.590087 0.0589644 -0.476959 -0.876945 4 4 4
0.361978 -0.0708323 0.589736 -0.0783832 -0.327495 -0.941596 2 4 3
0.361648 -0.0706842 0.589331 0.175739 -0.0476256 -0.983284 3 4 3
0.126631 -0.33059 2.23405 0.718048 0.143945 -0.680945 5 4 4
0.583102 -0.13119 0.899421 -0.696455 0.0595024 -0.715129 11 11 9
0.584778 -0.131129 0.894948 -0.866738 0.0845457 -0.491545 7 8 5
0.584039 -0.132137 0.896792 -0.650375 -0.262285 -0.712895 6 7 3
0.584909 -0.130272 0.888914 -0.90668 0.299318 -0.297221 9 9 6
0.585904 -0.131324 0.891081 -0.89854 -0.169241 -0.404949 10 10 7
0.362475 -0.0700138 0.589166 0.254817 -0.0717072 -0.964327 3 5 3
0.364006 -0.0699022 0.589241 0.264519 -0.0336479 -0.963793 9 10 11
0.12418 -0.322002 2.22831 0.922758 -0.0540671 -0.381567 5 5 2
0.124244 -0.321253 2.22783 0.922292 -0.0599215 -0.381821 5 4 2
0.127555 -0.3228 2.23422 0.85667 -0.0618808 -0.51214 3 4 1
0.583553 -0.130053 0.89727 -0.871521 0.0349799 -0.489109 8 8 5
0.585625 -0.130151 0.893234 -0.408187 -0.572074 -0.711418 10 11 9
0.361901 -0.0690513 0.588935 0.19155 0.0149265 -0.981369 4 3 5
0.36193 -0.0690595 0.588967 0.17392 0.0449161 -0.983735 4 3 5
0.363001 -0.0690639 0.589277 0.267103 -0.0291152 -0.963228 5 5 5
0.123739 -0.318328 2.22821 0.863778 -0.0190302 -0.503514 5 3 4
0.123608 -0.319623 2.22913 0.914352 0.0255151 -0.404116 5 4 3
0.627225 -0.217136 1.44418 -0.887596 0.277212 -0.367867 7 5 3
0.58143 -0.129704 0.90423 -0.265276 0.77085 -0.579154 10 10 10
0.582966 -0.129458 0.902893 -0.079202 0.499155 -0.862885 11 10 10
0.583809 -0.129269 0.900174 -0.564175 0.590223 -0.577359 11 11 9
0.36287 -0.068219 0.589514 0.267057 -0.0278924 -0.963277 4 4 4
0.365247 -0.0695499 0.595562 0.246634 -0.462261 -0.851755 12 7 8
0.123729 -0.312617 2.22462 0.500257 -0.596986 -0.627177 6 5 5
0.387041 -0.177032 1.27596 -0.713788 0.495118 -0.495343 8 7 7
0.618288 -0.217634 1.45936 -0.674145 0.461234 -0.576881 8 8 7
0.619995 -0.216199 1.45074 -0.748194 0.154648 -0.645206 9 9 7
0.629402 -0.214846 1.43845 -0.355513 0.876185 -0.325439 7 6 5
0.632907 -0.213139 1.43882 -0.38047 0.834998 -0.397519 9 9 7
0.630461 -0.215152 1.44077 -0.620056 0.662486 -0.42029 6 6 6
0.350661 -0.0662555 0.590643 -0.226723 -0.20026 -0.953149 5 6 6
0.350825 -0.0664532 0.590555 -0.284264 -0.180296 -0.941641 5 5 6
0.361653 -0.0672803 0.588956 -0.135713 0.207631 -0.968747 4 4 5
0.363019 -0.0671704 0.589215 0.264358 -0.0385031 -0.963656 4 5 4
0.364094 -0.0671805 0.589566 -0.201375 -0.0513295 -0.978168 7 8 7
0.366034 -0.0683726 0.594429 0.438501 -0.514208 -0.737094 9 7 6
0.391359 -0.174692 1.26918 -0.579028 0.181736 -0.794795 6 7 6
0.394348 -0.173607 1.26668 -0.585983 0.124566 -0.800692 6 7 6
0.395942 -0.173783 1.26806 -0.455829 -0.351904 -0.817547 7 7 5
0.399941 -0.172651 1.25953 -0.455841 -0.351903 -0.817541 6 7 4
0.618384 -0.215774 1.46597 -0.836564 0.419464 -0.352435 12 12 9
0.619968 -0.214189 1.45633 -0.668828 0.470805 -0.575336 9 9 7
0.625648 -0.213647 1.45199 -0.62619 0.55312 -0.549495 11 12 9
0.628271 -0.212964 1.44623 -0.824498 0.139059 -0.548512 11 11 9
0.630407 -0.21063 1.44018 -0.806818 0.0050981 -0.590778 13 13 12
0.63725 -0.208589 1.42205 -0.920619 -0.0632906 -0.385298 8 9 6
0.639258 -0.208708 1.42255 -0.899653 -0.00965187 -0.4365 8 8 7
0.350795 -0.0651061 0.589894 0.0271749 -0.225749 -0.973806 5 4 6
0.352562 -0.0646873 0.586711 -0.621171 -0.271481 -0.73515 4 5 5
0.361906 -0.0660927 0.588568 -0.121958 0.0520519 -0.991169 4 4 5
0.361856 -0.0660794 0.588483 -0.123856 0.0530825 -0.990879 4 4 5
0.363246 -0.0661696 0.589166 0.285558 0.0868783 -0.954415 4 5 5
0.364145 -0.0664534 0.588886 0.0393676 -0.00809249 -0.999192 8 9 9
0.365973 -0.0671871 0.593925 -0.0712323 -0.259471 -0.96312 10 7 7
0.366331 -0.0664326 0.593968 0.116574 -0.620173 -0.775755 9 7 6
0.367214 -0.0672038 0.593947 0.723367 -0.245114 -0.645491 3 3 2
0.109475 -0.304971 2.21642 -0.430895 0.0882703 -0.898075 9 9 8
0.129567 -0.302514 2.22217 -0.135789 -0.682113 -0.718528 4 4 4
0.390542 -0.172821 1.27621 -0.675189 0.558113 -0.482317 3 3 2
0.393993 -0.171686 1.2727 -0.577959 0.258726 -0.773966 3 4 3
0.394102 -0.171615 1.27286 -0.580267 0.240363 -0.778149 3 4 3
0.3968 -0.171378 1.27285 -0.219632 0.828628 -0.514915 4 4 4
0.399226 -0.170714 1.26755 -0.640551 -0.428668 -0.637133 4 4 4
0.401905 -0.167879 1.24782 -0.626851 -0.446435 -0.638556 4 4 4
0.632201 -0.207894 1.43373 -0.914274 -0.0922354 -0.394456 10 10 9
0.635878 -0.208458 1.43231 -0.914041 -0.0982068 -0.393552 9 9 7
0.598299 -0.141402 1.01211 -0.370746 -0.640263 -0.672763 8 8 4
0.599868 -0.140533 1.01084 -0.826415 0.482098 -0.290896 8 9 5
0.601501 -0.142019 1.00981 -0.28798 0.859411 -0.422469 6 7 4
0.350285 -0.0641068 0.589739 0.100742 -0.226144 -0.968871 5 5 6
0.351547 -0.0644236 0.588389 -0.186617 -0.604504 -0.774435 5 5 5
0.361697 -0.065259 0.588919 -0.314712 0.0744612 -0.946262 4 4 5
0.363096 -0.0653496 0.589579 0.257399 0.142322 -0.955767 3 4 4
0.3641 -0.0653407 0.589822 -0.288686 0.0386392 -0.956644 7 7 6
0.36349 -0.0646048 0.588845 0.0179593 0.230337 -0.972945 6 7 7
0.364514 -0.0646302 0.589206 0.0910047 -0.623104 -0.776827 8 9 7
0.365258 -0.0659552 0.592195 0.933989 -0.0152471 -0.356977 12 8 9
0.102693 -0.298688 2.22193 -0.566332 0.361531 -0.740651 6 6 4
0.108227 -0.298651 2.21481 -0.46054 0.110875 -0.880687 9 9 8
0.131961 -0.298397 2.22211 -0.155428 -0.697099 -0.699925 3 4 4
0.397868 -0.168286 1.26972 -0.573373 0.268738 -0.773966 4 5 5
0.400009 -0.167758 1.26853 -0.575709 0.261513 -0.774707 5 7 6
0.630354 -0.206565 1.45322 -0.893316 0.29166 -0.341936 11 10 8
0.635578 -0.200734 1.4065 -0.606696 -0.603206 -0.517746 10 11 8
0.350138 -0.0635936 0.588124 -0.0832424 -0.643673 -0.76076 4 4 4
0.363155 -0.0637762 0.589692 -0.171713 -0.0159371 -0.985018 5 5 6
0.363994 -0.0636881 0.589071 0.168743 0.100951 -0.980477 9 9 9
0.363528 -0.0637506 0.589986 -0.6493 0.0173031 -0.760335 6 6 6
0.365042 -0.063694 0.589295 0.0330514 -0.662175 -0.74862 10 10 8
0.365097 -0.0635888 0.588773 -0.710833 0.136648 -0.68996 13 15 15
0.367138 -0.0648465 0.592125 -0.12704 -0.0693119 -0.989473 6 5 4
0.107534 -0.295268 2.22632 0.368827 0.136557 -0.919412 10 10 8
0.63216 -0.204834 1.4492 -0.734757 0.238033 -0.635195 14 8 7
0.635084 -0.203464 1.44366 -0.921868 -0.045377 -0.384838 15 9 7
0.636236 -0.203384 1.43814 -0.926117 -0.00285058 -0.377225 11 9 5
0.658419 -0.0738189 0.560874 -0.984467 -0.118235 -0.12979 10 10 6
0.36368 -0.062701 0.589458 -0.198031 -0.0414363 -0.97932 7 7 8
0.364513 -0.0626129 0.588832 -0.0456902 -0.0419317 -0.998075 10 11 11
0.390427 -0.164042 1.27378 -0.725987 0.503657 -0.468265 3 4 3
0.423832 -0.160882 1.23749 -0.500813 -0.28994 -0.81555 8 9 8
0.428787 -0.160004 1.23568 -0.575463 -0.0798845 -0.813917 10 9 9
0.631416 -0.202175 1.45129 -0.826038 0.353868 -0.438678 13 8 7
0.633369 -0.201192 1.44638 -0.923574 -0.0275168 -0.382431 13 9 7
0.650676 -0.0760125 0.58761 -0.678513 0.699358 -0.224761 6 2 0
0.658736 -0.0728029 0.562669 -0.995581 -0.0223044 -0.0912206 13 9 7
0.365069 -0.0616352 0.588828 -0.667254 -0.00184029 -0.744828 14 15 15
0.444463 -0.152724 1.1879 -0.538026 0.193856 -0.820334 6 7 6
0.651255 -0.0736882 0.580041 -0.977052 0.0983845 -0.188917 15 12 10
0.36384 -0.0606476 0.588803 0.225357 -0.184142 -0.956716 8 9 8
0.364319 -0.0604327 0.587847 -0.50294 -0.387733 -0.772473 13 15 15
0.175099 -0.281012 2.21607 -0.560331 0.478123 -0.676334 3 2 1
0.18359 -0.280195 2.20585 -0.647285 0.217422 -0.730581 3 3 2
0.473073 -0.147786 1.17025 -0.456447 0.60936 -0.648334 7 8 7
0.481478 -0.148293 1.16473 -0.585527 0.25983 -0.767885 6 6 6
0.483272 -0.14796 1.16451 -0.566974 0.329741 -0.754859 6 6 5
0.652094 -0.0730629 0.583473 -0.935502 0.205117 -0.287686 3 3 0
0.34987 -0.0591251 0.589058 -0.735885 0.146449 -0.661079 6 8 9
0.365595 -0.060314 0.587029 -0.718581 0.323978 -0.61537 13 16 16
0.0966688 -0.276181 2.22087 0.666321 -0.0891316 -0.740319 4 3 3
0.171168 -0.279654 2.21413 -0.523023 0.550337 -0.650828 3 2 1
0.170935 -0.279807 2.21361 -0.628241 0.263256 -0.732127 3 2 1
0.188343 -0.278859 2.20686 -0.63508 0.30359 -0.710286 2 2 1
0.470691 -0.146367 1.17066 0.182848 0.600106 -0.778742 7 7 7
0.473083 -0.145527 1.17197 -0.420121 0.659055 -0.623815 6 7 7
0.475356 -0.145757 1.1702 -0.415994 0.665546 -0.619676 7 6 7
0.651381 -0.0728529 0.587013 -0.860062 0.426833 -0.279478 4 1 0
0.65204 -0.0729792 0.583789 -0.962238 0.180236 -0.203993 3 3 0
0.351833 -0.0583321 0.587225 -0.532586 -0.273142 -0.80109 11 11 12
0.360518 -0.0592627 0.59186 0.285878 0.389441 -0.875563 11 10 9
0.364246 -0.0592187 0.588823 -0.559312 0.151015 -0.815086 8 10 9
0.364203 -0.0592319 0.588952 -0.56115 0.152528 -0.813539 8 10 9
0.363759 -0.0590657 0.589438 -0.474928 0.167923 -0.863855 8 8 7
0.365232 -0.0591652 0.587978 -0.544582 0.330623 -0.770791 13 15 16
0.0897473 -0.271351 2.21429 -0.0352445 0.124499 -0.991594 10 10 9
0.093811 -0.272014 2.22225 0.276596 0.123537 -0.953013 6 5 4
0.176907 -0.274367 2.21328 -0.55414 0.486933 -0.675148 2 3 1
0.180766 -0.275152 2.21378 -0.605929 0.395352 -0.690323 3 3 2
0.47435 -0.144069 1.16819 -0.433581 0.640663 -0.633686 5 4 4
0.474703 -0.14354 1.16664 -0.526158 0.491543 -0.693933 5 5 6
0.526471 -0.114119 0.932409 -0.444554 -0.336666 -0.830077 9 9 8
0.651806 -0.0719588 0.585217 -0.939451 0.185744 -0.287979 3 2 0
0.652838 -0.071147 0.584127 -0.677065 0.590143 -0.439676 5 3 1
0.653726 -0.0715127 0.583979 -0.751903 0.637254 -0.168967 5 3 2
0.350606 -0.0576227 0.588222 -0.748363 0.0903535 -0.657107 2 4 4
0.351353 -0.0571896 0.58765 -0.432183 -0.0264256 -0.901399 7 8 7
0.350471 -0.057581 0.588098 -0.748003 0.0974384 -0.656503 3 4 4
0.359017 -0.0583017 0.591176 0.302228 0.249448 -0.920019 16 12 11
0.360847 -0.0584033 0.591427 -0.36829 -0.170932 -0.913863 6 7 6
0.360347 -0.0585757 0.592366 0.272524 0.452709 -0.848991 12 12 10
0.361109 -0.0584766 0.591541 -0.201339 -0.150714 -0.967857 6 7 6
0.363905 -0.0576049 0.589577 -0.555871 0.00514905 -0.831252 13 12 12
0.36501 -0.0578269 0.586923 -0.699794 -0.182214 -0.690714 17 16 17
0.364792 -0.0580986 0.588647 -0.413578 -0.0433331 -0.909437 15 15 16
0.364917 -0.058073 0.58853 -0.439092 -0.106744 -0.892079 15 15 17
0.109839 -0.266999 2.21868 -0.632806 0.0980927 -0.768072 10 10 8
0.478037 -0.141354 1.16476 -0.532631 0.404239 -0.743569 5 5 6
0.479482 -0.141548 1.16478 -0.595386 0.283045 -0.751932 6 5 6
0.524853 -0.112324 0.93173 0.177198 -0.601859 -0.778695 10 7 7
0.528575 -0.112322 0.932736 0.18792 -0.616553 -0.764558 8 7 6
0.351434 -0.056133 0.587586 -0.677826 0.301086 -0.670745 7 8 7
0.359462 -0.0573836 0.591571 0.301832 0.250178 -0.91995 10 9 7
0.360478 -0.0573777 0.591821 -0.316723 -0.0681307 -0.946068 8 8 7
0.360558 -0.0574231 0.591688 -0.28738 -0.118099 -0.950508 7 8 7
0.361267 -0.0573315 0.591217 -0.671351 0.0639885 -0.738372 8 10 8
0.364543 -0.0566679 0.588608 -0.509028 -0.075312 -0.857449 12 14 15
0.365124 -0.056638 0.586129 -0.35594 -0.18147 -0.91672 15 14 16
0.365158 -0.0569009 0.587855 -0.357782 -0.117811 -0.926344 15 14 15
0.105695 -0.260909 2.21954 -0.126339 0.149808 -0.98061 7 8 5
0.109316 -0.260001 2.21614 0.120546 0.796147 -0.592974 8 10 6
0.476885 -0.139618 1.16844 -0.531914 0.479512 -0.697951 5 5 7
0.529991 -0.10964 0.933049 -0.0766059 -0.189105 -0.978964 7 6 5
0.599687 -0.124116 1.01207 -0.735352 0.596349 -0.321907 8 8 6
0.599797 -0.125015 1.01545 -0.825165 0.373668 -0.423646 9 9 7
0.658196 -0.0693626 0.581896 -0.508767 0.674693 -0.534739 4 2 0
0.253643 -0.0731217 0.759079 -0.169095 0.543388 -0.822275 4 4 3
0.357077 -0.0554899 0.591025 -0.450504 0.446902 -0.772868 10 10 9
0.358089 -0.0565022 0.591439 0.281033 0.229572 -0.931836 10 10 9
0.358887 -0.0564701 0.591647 0.302495 0.203408 -0.931194 10 10 9
0.359952 -0.0564536 0.591805 0.256345 0.109406 -0.960373 10 9 9
0.359054 -0.0564859 0.591682 0.289943 0.200102 -0.935891 10 10 9
0.360753 -0.0563813 0.5914 -0.0321076 0.126484 -0.991449 9 8 8
0.360015 -0.0564651 0.591841 0.301065 0.218588 -0.928213 10 9 8
0.362862 -0.0563196 0.590941 -0.161947 -0.361799 -0.918082 7 6 5
0.364714 -0.0558521 0.588217 -0.654665 -0.0288593 -0.755368 15 15 16
0.363832 -0.056055 0.590153 -0.714995 -0.183737 -0.674554 12 10 11
0.363932 -0.0562331 0.589827 -0.734683 -0.155116 -0.660439 12 12 13
0.106848 -0.255602 2.21907 0.0643353 0.830696 -0.552997 10 10 7
0.42522 -0.217794 1.79522 -0.677865 0.283327 -0.678398 2 3 3
0.432713 -0.214837 1.77938 -0.681253 0.266565 -0.68179 3 3 3
0.432505 -0.214393 1.76963 -0.687966 0.232449 -0.68751 3 3 3
0.430311 -0.2169 1.79638 -0.769011 0.451161 -0.452852 4 3 3
0.432338 -0.213807 1.76564 -0.686518 0.234613 -0.688222 2 3 3
0.445026 -0.212225 1.75828 -0.682182 0.283086 -0.674159 3 3 3
0.528761 -0.108391 0.932289 0.261406 -0.281019 -0.923415 6 4 5
0.529953 -0.107735 0.932053 -0.0783418 -0.183502 -0.979893 5 5 4
0.53193 -0.107734 0.931892 -0.0764152 -0.183377 -0.980068 6 6 5
0.543387 -0.108366 0.932106 -0.0852412 -0.194722 -0.977148 4 7 5
0.599726 -0.123389 1.02091 -0.834979 0.437478 -0.333801 6 8 6
0.617326 -0.120569 1.00168 -0.773077 0.293813 -0.562161 17 15 13
0.620787 -0.121955 0.999197 -0.575642 0.202024 -0.792353 16 15 14
0.624618 -0.120991 0.996338 -0.844447 0.457041 -0.279324 15 13 11
0.625739 -0.120182 0.994105 -0.664826 0.277784 -0.693428 17 14 13
0.677806 -0.139584 1.11477 -0.881537 0.23832 -0.407548 15 14 11
0.350432 -0.0542612 0.588166 -0.695155 -0.045685 -0.717407 4 4 5
0.349391 -0.0545752 0.589744 -0.697954 -0.210899 -0.684384 11 11 13
0.358827 -0.0556403 0.592076 0.304436 0.185537 -0.934288 14 14 13
0.359627 -0.0555302 0.592162 0.225935 0.0955407 -0.969446 14 13 13
0.360209 -0.055411 0.591521 -0.0489868 0.079647 -0.995619 10 8 8
0.364405 -0.054954 0.588687 -0.656163 -0.0810813 -0.75025 16 15 15
0.365049 -0.0547497 0.587657 -0.232637 -0.17567 -0.956567 19 15 17
0.104986 -0.250979 2.22559 -0.514498 0.0728345 -0.854393 12 8 7
0.530976 -0.188121 1.55856 -0.783739 0.479613 -0.394619 2 2 1
0.600411 -0.120407 1.02073 -0.898139 -0.146941 -0.414432 12 11 9
0.601684 -0.121735 1.02118 -0.897976 -0.149195 -0.41398 5 7 5
0.6032 -0.119884 1.01594 -0.83846 0.430064 -0.33471 10 12 9
0.605093 -0.121075 1.01495 -0.799837 0.522253 -0.295825 13 13 11
0.607677 -0.11969 1.01071 -0.60587 0.116363 -0.787008 21 18 16
0.609835 -0.120901 1.01033 -0.667668 0.239232 -0.704974 22 18 16
0.612407 -0.119977 1.00864 -0.933482 -0.0899117 -0.347171 20 19 18
0.621648 -0.119848 0.999231 -0.679145 0.292821 -0.673066 14 13 12
0.624212 -0.119368 0.997511 -0.90676 0.31131 -0.284382 15 13 11
0.686067 -0.134637 1.10227 -0.465618 0.664865 -0.584084 19 18 15
0.687314 -0.134735 1.10196 -0.443481 0.388396 -0.807758 19 18 15
0.688518 -0.134557 1.10008 -0.591783 0.53176 -0.605826 15 13 13
0.688215 -0.13447 1.10015 -0.637334 0.588304 -0.497699 15 13 13
0.718266 -0.133338 1.07785 -0.959947 -0.1001 -0.261692 4 2 0
0.349898 -0.0532054 0.588712 -0.627712 0.0384319 -0.777497 9 9 10
0.364702 -0.0535487 0.587662 -0.0169864 -0.354022 -0.935083 19 16 16
0.364323 -0.0538053 0.588973 -0.73342 -0.16552 -0.659317 17 15 14
0.363681 -0.0543351 0.590219 -0.361835 -0.0836608 -0.928481 12 10 9
0.089344 -0.245507 2.22492 -0.398907 0.195446 -0.895921 10 9 7
0.110206 -0.248551 2.22528 0.926126 0.00191236 -0.37721 14 10 7
0.109761 -0.248364 2.22529 0.91906 -0.000624958 -0.394117 14 10 7
0.534916 -0.18666 1.57078 -0.243138 0.893317 -0.377981 2 2 1
0.622633 -0.144045 1.20662 -0.769505 0.544809 -0.333234 4 5 4
0.601839 -0.1189 1.01989 -0.786403 0.465242 -0.406349 10 9 8
0.602836 -0.118672 1.01345 -0.608705 0.194427 -0.769205 10 11 9
0.604808 -0.119276 1.01545 -0.817003 0.477789 -0.322836 10 11 9
0.604665 -0.118024 1.01209 -0.583827 0.0920708 -0.80664 13 13 11
0.616532 -0.118793 1.00366 -0.771404 0.287581 -0.567655 13 12 11
0.616206 -0.117657 1.00193 -0.781036 -0.350204 -0.51705 8 6 7
0.617164 -0.117885 1.00478 -0.814586 0.225486 -0.534422 7 6 6
0.625352 -0.117019 0.998816 -0.903184 0.322588 -0.283188 6 4 3
0.624688 -0.11763 0.998768 -0.841411 0.463737 -0.277445 6 4 3
0.678797 -0.135876 1.11699 -0.469209 0.360732 -0.80605 9 6 5
0.68714 -0.134195 1.10943 -0.899711 -0.207275 -0.384131 14 14 12
0.351803 -0.0527771 0.588029 -0.724041 -0.0670258 -0.686493 10 11 10
0.361739 -0.052842 0.592616 -0.671237 -0.0562781 -0.739103 11 9 10
0.362995 -0.0532189 0.590306 -0.456694 -0.171739 -0.872889 13 9 10
0.36539 -0.0528214 0.585462 -0.695526 0.416526 -0.585449 18 17 17
0.0903888 -0.241304 2.22471 -0.387662 0.297183 -0.872582 8 8 6
0.105059 -0.244095 2.22771 -0.531079 0.0586242 -0.845292 10 10 8
0.106781 -0.24452 2.22858 -0.613357 0.0552563 -0.787871 11 10 8
0.114177 -0.244253 2.23109 0.920108 -0.0157693 -0.391348 12 10 7
0.533191 -0.183821 1.57483 -0.883693 0.168487 -0.43669 4 5 3
0.535884 -0.182694 1.57439 -0.716585 0.119637 -0.687163 6 8 6
0.532425 -0.104436 0.934833 0.0331443 -0.44485 -0.894991 3 3 3
0.55022 -0.104084 0.92605 0.0272331 -0.760365 -0.648924 1 3 2
0.552 -0.104026 0.926906 -0.384678 -0.575273 -0.721862 3 4 2
0.55666 -0.104028 0.929495 -0.187943 0.0796787 -0.978943 2 2 1
0.601887 -0.117846 1.02406 -0.615745 0.724085 -0.31074 13 12 10
0.602171 -0.117109 1.01557 -0.864506 0.344734 -0.365769 9 10 9
0.602356 -0.116054 1.0136 -0.88013 0.292682 -0.373777 5 6 4
0.605851 -0.117018 1.01095 -0.653312 0.242099 -0.717337 11 11 9
0.678832 -0.133915 1.11809 -0.406838 0.522599 -0.749248 5 5 5
0.677794 -0.133523 1.11967 -0.402472 0.541218 -0.738308 5 4 3
0.680314 -0.133802 1.11688 -0.46001 0.252623 -0.851218 8 8 6
0.682221 -0.132919 1.11478 -0.83703 0.284508 -0.467371 12 11 12
0.683666 -0.131965 1.11267 -0.85306 -0.372783 -0.365131 13 13 12
0.686296 -0.132823 1.1064 -0.864627 -0.326094 -0.382207 14 14 13
0.687813 -0.13199 1.10946 -0.851925 -0.380562 -0.359716 13 11 8
0.688413 -0.130571 1.10294 -0.865184 -0.207773 -0.456385 6 5 6
0.689475 -0.131913 1.10008 -0.826748 0.411017 -0.384126 12 12 13
0.195986 -0.077284 0.863896 -0.124538 0.245586 -0.961342 3 3 2
0.350384 -0.0508831 0.588219 -0.568262 -0.0025246 -0.822844 8 6 4
0.351286 -0.0514989 0.587855 -0.255306 -0.0171386 -0.966708 7 8 7
0.363658 -0.0516597 0.590133 -0.76635 0.0924693 -0.635733 15 12 11
0.0892528 -0.239684 2.22872 -0.412876 -0.0241923 -0.910466 9 8 6
0.538373 -0.180207 1.56545 -0.661376 0.406688 -0.630227 7 9 8
0.538597 -0.180273 1.56598 -0.720856 0.0626103 -0.690251 7 9 8
0.568155 -0.164351 1.44549 -0.426145 0.299799 -0.853535 7 6 5
0.57091 -0.164324 1.44389 -0.535052 -0.454321 -0.712259 6 6 5
0.56921 -0.16695 1.44436 -0.645195 -0.268617 -0.71524 4 3 3
0.571093 -0.163873 1.43944 -0.411806 -0.580512 -0.70244 5 5 4
0.573592 -0.163275 1.43351 -0.599686 -0.355442 -0.716964 4 4 4
0.623341 -0.137846 1.19223 -0.803857 0.494395 -0.330738 1 3 1
0.601902 -0.115615 1.01763 -0.863029 0.33469 -0.378369 4 4 3
0.601788 -0.116397 1.02221 -0.892261 -0.0352288 -0.450143 7 7 5
0.60235 -0.115417 1.024 -0.880183 -0.139875 -0.453555 5 2 1
0.6023 -0.115472 1.01435 -0.884482 0.267319 -0.382402 3 4 3
0.602204 -0.115268 1.0124 -0.909077 0.0269213 -0.415758 3 3 2
0.606682 -0.11465 1.01095 -0.637645 0.319467 -0.700963 3 3 1
0.60758 -0.114053 1.0095 -0.628248 0.343417 -0.698118 3 3 1
0.611941 -0.114961 1.00808 -0.720607 -0.491913 -0.488618 5 4 5
0.685132 -0.130923 1.11122 -0.942785 -0.0674052 -0.326516 8 7 6
0.68689 -0.128971 1.10642 -0.888802 -0.26979 -0.370465 5 4 3
0.689011 -0.128364 1.10008 -0.489955 0.0880535 -0.867289 4 5 4
0.197548 -0.0765568 0.866524 -0.0327356 0.723041 -0.690029 6 4 4
0.201755 -0.0765112 0.864877 -0.575625 0.466761 -0.671409 6 7 6
0.204975 -0.0768512 0.865996 0.0241969 0.784282 -0.619932 5 4 3
0.35232 -0.0503841 0.588405 0.0645987 0.120671 -0.990589 12 12 12
0.363341 -0.0507371 0.590478 -0.651348 0.27056 -0.708903 12 9 9
0.364275 -0.0506837 0.589531 -0.374582 0.189169 -0.907692 18 15 16
0.364466 -0.0506425 0.588194 -0.676527 0.375921 -0.633242 18 16 17
0.36443 -0.050833 0.588731 -0.577121 0.277992 -0.767888 19 16 16
0.364968 -0.0505172 0.586816 -0.725785 0.192649 -0.660395 20 18 17
0.467402 -0.0877336 0.859613 0.102544 0.90249 -0.418326 12 9 8
0.536847 -0.175031 1.57263 -0.568068 0.729753 -0.380473 15 15 14
0.538702 -0.175282 1.56819 -0.640115 0.666472 -0.382187 16 15 14
0.538681 -0.176539 1.56599 -0.713577 0.0155739 -0.700403 15 15 14
0.56514 -0.164458 1.44928 -0.578847 0.562112 -0.590734 9 8 10
0.571108 -0.160377 1.43672 -0.421662 -0.572489 -0.703176 15 14 13
0.574468 -0.15981 1.42813 -0.599561 -0.362106 -0.713726 12 12 11
0.576874 -0.16006 1.42218 -0.649286 -0.264439 -0.713092 9 9 9
