ply
format ascii 1.0
element vertex 732
property float x
property float y
property float z
property float nx
property float ny
property float nz
property uchar diffuse_red
property uchar diffuse_green
property uchar diffuse_blue
end_header
0.653097 0.143919 1.04124 0.618654 -0.138197 -0.773414 41 37 26
0.653752 0.143768 1.04205 0.663117 -0.134323 -0.736365 44 39 29
0.653811 0.143793 1.04182 0.597685 -0.22484 -0.769558 41 36 26
0.688816 0.126398 0.937262 -0.526231 -0.318057 -0.788619 67 63 50
0.654307 0.14542 1.04182 0.611675 -0.341902 -0.713412 98 89 71
0.654441 0.144248 1.04223 0.573566 -0.321103 -0.753601 83 76 61
0.68999 0.126882 0.938306 -0.511793 -0.397048 -0.761854 68 64 51
0.656057 0.144317 1.04243 0.502752 -0.358611 -0.786536 97 89 72
0.657601 0.144335 1.04339 0.579843 -0.246588 -0.776516 99 91 73
0.658657 0.144853 1.04539 0.565449 -0.269403 -0.779545 99 91 74
0.657759 0.145099 1.04445 0.345556 -0.262053 -0.901066 100 92 74
0.666821 0.143834 1.04956 0.390797 -0.176708 -0.903356 101 91 75
0.671122 0.14452 1.05162 0.763181 -0.438859 -0.474297 101 92 73
0.728526 0.125106 0.963024 0.421781 -0.451616 -0.786221 64 54 36
0.728085 0.124778 0.962902 0.499225 -0.821592 -0.275248 58 49 33
0.7319 0.125173 0.96715 0.772204 -0.586853 -0.243526 115 101 84
0.744558 0.145254 1.13413 -0.0156553 0.0359997 -0.999229 38 35 28
0.809109 0.136818 1.13492 -0.491347 -0.169477 -0.854316 40 37 32
0.809293 0.136534 1.13352 -0.506621 -0.183879 -0.842332 42 40 34
0.327103 0.123097 0.547141 0.0249963 0.0281638 -0.999291 6 4 1
0.327194 0.124103 0.546727 0.00750551 -0.0615795 -0.998074 4 5 1
0.328396 0.123382 0.548003 0.0233639 0.0201562 -0.999524 5 4 1
0.328412 0.123388 0.548023 0.0273462 0.0480931 -0.998469 5 4 1
0.327737 0.124263 0.547175 0.0068951 -0.109386 -0.993976 6 4 1
0.331241 0.123701 0.546375 0.460342 -0.59189 -0.661628 9 5 2
0.332536 0.123502 0.547034 0.289937 -0.593827 -0.750537 9 3 1
0.289368 0.13412 0.590718 0.438506 0.686634 -0.579868 2 2 0
0.194936 0.161674 0.702605 0.794396 -0.170171 -0.583075 6 3 1
0.195046 0.161519 0.702676 0.808811 -0.150303 -0.568537 6 3 1
0.196109 0.161931 0.702806 0.803296 -0.149947 -0.576396 6 3 1
0.196998 0.161438 0.70589 0.792051 -0.1575 -0.589787 4 4 1
0.318422 0.152029 0.747814 0.18159 -0.870952 -0.456583 96 92 84
0.328223 0.151812 0.759631 0.315595 -0.534841 -0.783802 62 59 57
0.345923 0.149823 0.761307 -0.169982 0.0601377 -0.98361 93 87 79
0.348602 0.149584 0.763097 0.154916 0.645387 -0.747981 79 73 66
0.354513 0.151471 0.782566 -0.248744 -0.492517 -0.833998 113 107 98
0.355399 0.150359 0.782966 -0.186451 -0.15263 -0.970536 115 109 95
0.356827 0.150357 0.782683 -0.054577 -0.301697 -0.951841 108 101 88
0.363996 0.15171 0.792325 0.145979 -0.620553 -0.770457 106 96 79
0.366427 0.15261 0.798807 0.150295 -0.414896 -0.89737 111 104 94
0.381065 0.150388 0.802648 0.83017 -0.521736 -0.196495 74 68 61
0.391536 0.150967 0.811384 0.575373 -0.45442 -0.680036 103 96 85
0.396113 0.149837 0.810731 -0.323398 -0.385607 -0.86413 101 95 83
0.396908 0.150118 0.811204 -0.321806 -0.394898 -0.860521 102 96 84
0.397345 0.150503 0.812093 -0.285607 -0.383306 -0.878354 102 96 84
0.364135 0.16016 0.855219 0.0388615 -0.908187 -0.416756 100 94 83
0.36415 0.159025 0.85775 0.0385185 -0.907853 -0.417515 98 93 80
0.369426 0.158855 0.859061 -0.0408232 -0.760277 -0.648315 123 115 85
0.366613 0.15909 0.859526 0.258243 -0.882056 -0.394065 99 93 81
0.377434 0.15952 0.862189 0.214862 -0.484897 -0.847767 100 95 89
0.382059 0.158754 0.862349 0.438693 -0.723856 -0.532524 101 92 83
0.389177 0.156253 0.855256 -0.323234 -0.495063 -0.806494 101 92 82
0.390423 0.156753 0.854577 -0.347521 -0.400385 -0.847892 98 91 83
0.345291 0.172053 0.934197 -0.366888 -0.364677 -0.855806 98 91 84
0.398692 0.156379 0.872588 0.508866 -0.0454572 -0.859645 100 93 83
0.402394 0.157208 0.871446 0.891047 -0.378782 -0.250118 98 91 85
0.409796 0.157269 0.877749 0.786206 0.342133 -0.514612 99 92 82
0.470574 0.143732 0.841823 0.149288 0.173927 -0.973377 251 218 125
0.50992 0.139213 0.847068 0.327148 -0.483952 -0.811643 235 232 235
0.510655 0.139724 0.847908 -0.297959 -0.695507 -0.653828 234 231 235
0.526585 0.136927 0.849533 0.340411 -0.225813 -0.912759 221 217 220
0.527809 0.136999 0.85001 0.478522 0.284108 -0.830843 216 212 216
0.531755 0.137305 0.85239 0.584601 -0.215695 -0.782124 238 232 226
0.534155 0.136596 0.853985 0.406009 -0.189777 -0.893947 238 232 225
0.543965 0.136665 0.860669 0.358841 0.197461 -0.912273 231 225 219
0.547872 0.136797 0.863524 -0.357745 -0.0928443 -0.929192 190 187 194
0.547505 0.136857 0.863869 -0.447227 -0.0731171 -0.891427 190 187 195
0.546164 0.13679 0.86414 0.414862 -0.0980347 -0.904587 199 195 197
0.548385 0.137147 0.864578 -0.384661 -0.0565856 -0.921322 190 187 194
0.550784 0.137078 0.865035 0.451414 -0.033393 -0.89169 201 184 159
0.554492 0.150528 0.973369 0.855308 -0.0137092 -0.517939 52 33 15
0.55549 0.15015 0.975984 0.950464 -0.0287592 -0.309502 123 95 34
0.555555 0.150937 0.974433 0.52353 0.0116444 -0.851928 90 66 26
0.556136 0.150995 0.977538 0.540835 -0.0669176 -0.838463 138 106 35
0.588626 0.151733 1.01307 0.479124 -0.142354 -0.866127 29 20 15
0.588439 0.151515 1.01316 0.42816 -0.142435 -0.892407 29 20 16
0.681584 0.129954 0.943908 -0.552798 -0.527964 -0.644723 56 53 47
0.685095 0.128404 0.935499 -0.536866 -0.330202 -0.776365 62 57 47
0.686512 0.128504 0.935792 -0.66275 -0.261326 -0.701764 69 63 54
0.654006 0.145574 1.04133 0.55868 -0.385994 -0.734088 96 88 72
0.689207 0.128392 0.937494 -0.488516 -0.559209 -0.669804 68 64 53
0.66784 0.145608 1.04957 0.827631 -0.215132 -0.518406 105 95 76
0.668967 0.146055 1.04993 0.58835 -0.363008 -0.722544 105 93 75
0.669824 0.145581 1.05018 0.817321 -0.278354 -0.504486 104 92 74
0.674354 0.145878 1.05172 0.594137 -0.75404 -0.280046 101 93 75
0.745467 0.147462 1.13443 -0.0543357 -0.706612 -0.705512 37 36 27
0.749147 0.14724 1.13271 -0.511866 -0.2001 -0.835436 39 35 27
0.807244 0.138981 1.13349 -0.494431 -0.180032 -0.850369 43 41 32
0.330831 0.124365 0.543416 0.49308 -0.711032 -0.501305 7 4 2
0.331238 0.124623 0.545126 0.107937 -0.800356 -0.589729 7 5 2
0.331727 0.124425 0.544638 0.576441 -0.694734 -0.430187 7 5 2
0.195344 0.163243 0.701572 0.765648 -0.467463 -0.441885 4 3 0
0.196419 0.163948 0.70271 0.843249 -0.128537 -0.521929 4 4 0
0.197325 0.162815 0.704393 0.795779 -0.368157 -0.480829 4 3 1
0.263819 0.158366 0.739577 0.664751 -0.376236 -0.645408 7 4 1
0.264828 0.159447 0.740628 0.935742 -0.208114 -0.284736 12 10 5
0.267311 0.159432 0.744589 0.442248 -0.0344589 -0.896231 9 8 4
0.267684 0.159601 0.744828 0.954029 -0.235863 -0.184927 7 6 3
0.26752 0.159858 0.746375 0.977647 -0.0169548 -0.209566 6 5 1
0.357298 0.151726 0.780626 0.568505 -0.503456 -0.650642 107 101 91
0.357304 0.153003 0.779744 0.580845 -0.464016 -0.668811 108 102 88
0.394584 0.151512 0.81151 0.249674 0.248539 -0.935891 94 87 75
0.37476 0.161518 0.858392 -0.0134717 -0.629109 -0.777201 103 98 88
0.375771 0.160951 0.859666 -0.0134636 -0.620937 -0.783745 102 98 87
0.374749 0.160064 0.859559 -0.0144399 -0.630443 -0.776101 101 97 87
0.377172 0.160041 0.860051 -0.257799 -0.628029 -0.734247 100 95 88
0.387702 0.158658 0.854406 -0.345561 -0.402547 -0.847669 101 94 83
0.388556 0.158851 0.854586 -0.346212 -0.403728 -0.846842 102 97 88
0.393588 0.157552 0.855422 -0.212053 0.0168784 -0.977112 100 95 82
0.395516 0.15742 0.854459 0.564317 -0.0400434 -0.824586 102 97 87
0.396968 0.158299 0.855437 0.567208 -0.0196584 -0.82334 103 98 88
0.401479 0.159322 0.869762 0.765674 0.292372 -0.572942 100 93 84
0.404205 0.158881 0.872967 0.799124 0.402573 -0.446471 96 90 83
0.406102 0.158315 0.872532 0.903302 0.198712 -0.38021 96 90 83
0.408075 0.159962 0.878478 0.701399 0.45733 -0.546708 100 94 83
0.408097 0.159659 0.882872 0.117485 0.688397 -0.715756 97 92 84
0.498885 0.141636 0.842366 -0.32544 0.305616 -0.894812 224 226 243
0.504057 0.14172 0.846652 0.148346 -0.939816 -0.307798 229 230 240
0.510518 0.141916 0.845649 0.478494 -0.394868 -0.784298 231 228 232
0.524385 0.14026 0.848729 0.119207 -0.00924682 -0.992826 211 210 220
0.527397 0.139962 0.849947 0.468085 -0.0429991 -0.882637 218 214 216
0.529972 0.138537 0.851075 -0.331635 0.358285 -0.872726 214 210 213
0.531197 0.138815 0.851612 0.282025 0.136461 -0.949653 239 233 227
0.535819 0.13812 0.853876 -0.0433649 -0.0391556 -0.998292 201 200 209
0.540191 0.137921 0.854126 0.361894 0.0554219 -0.93057 193 192 199
0.544924 0.138485 0.862309 0.388606 -0.000416316 -0.921404 201 197 200
0.548077 0.138573 0.864061 -0.375837 -0.0956673 -0.921734 190 188 194
0.564136 0.137145 0.870325 0.728814 0.310423 -0.610302 146 120 59
0.552966 0.152484 0.97301 0.592061 -0.0318443 -0.805264 49 28 14
0.554523 0.152258 0.97337 0.854485 0.00584304 -0.519443 59 38 16
0.556358 0.151743 0.975986 0.976435 0.0589188 -0.207612 127 96 31
0.555583 0.152969 0.974809 0.957493 -0.00862924 -0.288327 114 87 33
0.673853 0.134123 0.948769 -0.568976 0.278167 -0.77388 48 44 36
0.676812 0.133845 0.947595 -0.576405 -0.521185 -0.629384 73 67 58
0.684457 0.130046 0.933767 -0.52425 -0.470849 -0.709551 67 62 56
0.690102 0.129124 0.931112 -0.525758 -0.339434 -0.779976 48 45 37
0.668285 0.147111 1.04942 0.582804 0.200636 -0.787455 105 95 77
0.67382 0.147132 1.05264 0.676504 -0.590876 -0.439554 102 93 75
0.675189 0.14677 1.04962 0.228232 -0.666262 -0.709933 70 67 55
0.726933 0.127173 0.959608 0.453477 -0.850856 -0.265334 101 87 70
0.739127 0.149504 1.13295 -0.756051 -0.0898627 -0.648315 79 71 63
0.333123 0.125079 0.544359 0.115595 -0.683772 -0.720481 6 5 3
0.333628 0.124816 0.54533 0.139017 -0.671665 -0.727695 6 6 3
0.334877 0.125416 0.544944 0.304514 0.186814 -0.934008 6 4 3
0.198221 0.164798 0.704517 0.763153 -0.380189 -0.522545 4 3 2
0.264208 0.160404 0.740212 0.749533 -0.239311 -0.617196 10 9 5
0.263362 0.161783 0.739215 0.474665 -0.0893038 -0.875624 4 6 2
0.264414 0.161723 0.741617 0.463721 -0.146434 -0.873796 7 5 3
0.266456 0.161694 0.742541 0.850811 0.00355116 -0.52546 3 3 1
0.266278 0.161407 0.744227 0.318573 0.6195 -0.717448 3 3 1
0.348351 0.155604 0.782359 0.623043 -0.303215 -0.721026 116 107 96
0.351672 0.154567 0.781297 0.499736 -0.667874 -0.551551 114 106 96
0.349968 0.155614 0.782155 -0.141221 -0.319814 -0.936897 120 114 99
0.35299 0.155033 0.780705 0.41959 -0.767222 -0.485092 116 108 96
0.372974 0.155408 0.799864 -0.166495 -0.724087 -0.669312 113 105 90
0.391223 0.153794 0.809226 0.125702 -0.586101 -0.800428 110 103 92
0.395715 0.152831 0.811794 -0.255518 -0.618897 -0.742749 104 96 85
0.396587 0.15352 0.811707 -0.256314 -0.619571 -0.741913 107 98 88
0.369785 0.162967 0.850165 -0.141252 -0.410137 -0.901019 110 102 93
0.377203 0.1614 0.858127 -0.112916 -0.485702 -0.866801 120 114 93
0.378924 0.161371 0.859693 0.373701 -0.75093 -0.544474 102 97 88
0.388951 0.160613 0.853552 -0.347092 -0.400125 -0.848191 101 95 86
0.394528 0.159111 0.8551 -0.252622 0.0212553 -0.967332 102 96 84
0.395515 0.159508 0.855083 0.530011 0.0918288 -0.843004 104 99 91
0.393603 0.160787 0.855624 0.717142 -0.0507806 -0.695074 102 97 85
0.400009 0.160356 0.865945 0.442735 0.284454 -0.850336 101 94 83
0.400912 0.160236 0.868899 0.866535 0.181293 -0.465027 100 94 83
0.406835 0.160204 0.875253 0.90441 0.19112 -0.381465 97 92 84
0.426087 0.155825 0.865144 0.587137 -0.296748 -0.753134 57 50 40
0.497458 0.143497 0.843556 0.319512 0.371621 -0.871671 251 245 236
0.524659 0.141712 0.84928 0.411918 -0.238745 -0.879389 207 205 214
0.525712 0.141783 0.850314 0.240783 -0.333218 -0.911586 218 215 218
0.536539 0.140734 0.855261 -0.143894 0.0828724 -0.986117 200 200 209
0.547317 0.139911 0.862612 0.415306 0.0258336 -0.909315 200 197 197
0.548532 0.140126 0.86423 0.0674995 -0.0152821 -0.997602 197 193 191
0.548285 0.14035 0.864672 -0.348181 -0.0816218 -0.933867 197 193 192
0.553829 0.15398 0.972427 0.856401 -0.0639803 -0.512332 49 31 19
0.680438 0.132819 0.936734 -0.454883 0.452632 -0.766945 69 65 58
0.691074 0.12923 0.924538 -0.666718 -0.191458 -0.720299 74 65 56
0.806489 0.142486 1.13103 -0.786835 0.0597323 -0.614266 37 33 27
0.333553 0.127001 0.543177 0.183075 -0.8799 -0.438474 5 3 2
0.334075 0.12732 0.544696 0.310354 -0.169614 -0.935367 7 4 3
0.416654 0.124082 0.603755 0.199795 -0.758794 -0.61993 100 95 88
0.261488 0.164547 0.743074 0.860781 0.373499 -0.345767 5 4 1
0.26365 0.164443 0.744814 0.591686 0.519804 -0.616208 6 4 3
0.26365 0.164443 0.744814 0.591686 0.519804 -0.616208 6 4 3
0.265633 0.16386 0.747629 0.269922 0.524629 -0.807407 4 3 1
0.266563 0.164283 0.749966 0.700817 -0.510244 -0.498505 5 3 2
0.268285 0.163677 0.750525 0.901342 -0.411533 -0.134995 4 5 2
0.33901 0.156612 0.762816 0.236723 -0.461959 -0.854726 101 95 86
0.374684 0.156744 0.798964 0.0789551 -0.544767 -0.834863 110 103 90
0.382912 0.154894 0.800271 -0.270798 -0.543432 -0.794575 113 107 94
0.375405 0.163727 0.853371 -0.192406 -0.739424 -0.645161 104 97 79
0.376249 0.163254 0.854997 -0.0189477 -0.691833 -0.721809 103 96 80
0.379633 0.163581 0.853174 -0.235385 -0.682312 -0.69213 127 119 90
0.385065 0.162544 0.850308 -0.114452 -0.513219 -0.850592 123 115 88
0.39664 0.160998 0.857216 0.570291 0.430176 -0.699798 103 97 85
0.399709 0.161791 0.865106 0.27685 0.448092 -0.85004 100 94 86
0.401349 0.162888 0.872612 0.684546 0.468242 -0.558701 101 96 87
0.402785 0.161581 0.86982 0.901544 -0.122924 -0.414859 102 96 84
0.401349 0.162888 0.872612 0.684546 0.468242 -0.558701 101 96 87
0.403696 0.163135 0.874931 0.591644 -0.314171 -0.742465 101 96 84
0.462029 0.150671 0.841146 0.0448897 0.383659 -0.922383 200 169 97
0.463088 0.150918 0.842495 0.1589 0.222137 -0.96198 207 176 100
0.464707 0.151011 0.842856 -0.0158879 0.299753 -0.953885 203 174 100
0.510434 0.14457 0.84846 -0.000859141 0.659215 -0.751954 230 227 230
0.513097 0.144955 0.849947 -0.438771 0.0609449 -0.89653 221 219 228
0.520202 0.143295 0.84779 0.104116 0.28089 -0.954076 241 234 226
0.523464 0.143656 0.848796 0.415188 -0.177265 -0.892298 199 200 215
0.524961 0.143595 0.849939 0.355924 -0.251306 -0.900091 205 203 211
0.526547 0.143354 0.850609 0.24369 0.131002 -0.960965 215 212 214
0.533425 0.143622 0.854581 0.459004 -0.208171 -0.863702 212 208 211
0.535501 0.142184 0.855252 0.139272 -0.280335 -0.949745 215 212 216
0.546928 0.14134 0.862139 0.228466 0.0855229 -0.969788 202 199 198
0.546819 0.141373 0.861676 0.633759 0.0853174 -0.768811 202 199 198
0.54767 0.141727 0.863928 0.314557 0.0942502 -0.944548 183 180 186
0.548927 0.141936 0.864771 -0.231452 -0.0313105 -0.972342 195 188 185
0.562805 0.141053 0.874129 0.620002 0.419929 -0.662764 156 128 66
0.565162 0.140688 0.875246 0.542382 0.540368 -0.643291 159 133 76
0.587903 0.138191 0.873707 0.0666017 -0.861341 -0.503642 88 76 52
0.689093 0.132372 0.923196 -0.658585 -0.292964 -0.693136 76 70 57
0.718515 0.131485 0.956503 0.65119 -0.724696 -0.225317 116 103 81
0.71874 0.132443 0.955748 0.708711 -0.669039 -0.223865 117 103 80
0.719176 0.132162 0.954319 0.660255 -0.716891 -0.223901 116 103 81
0.729514 0.129575 0.953829 0.653802 -0.691108 -0.308078 118 104 83
0.761608 0.132603 1.00525 0.780982 -0.0238849 -0.624097 75 69 57
0.762158 0.133059 1.00519 0.783434 -0.0618851 -0.618386 75 69 57
0.334 0.12843 0.545114 0.41722 -0.0235323 -0.908501 8 4 2
0.254969 0.168557 0.749183 0.100453 0.0355266 -0.994307 4 4 2
0.264418 0.165283 0.746624 0.61516 0.61144 -0.497713 5 5 2
0.266732 0.166484 0.749066 0.751005 -0.649637 -0.118166 11 6 4
0.343653 0.157344 0.758226 0.0976423 -0.653659 -0.750464 115 108 95
0.389763 0.157943 0.807304 0.503658 -0.589072 -0.63192 109 102 89
0.383081 0.163679 0.849916 -0.034665 -0.471524 -0.881172 120 112 89
0.399046 0.162674 0.859874 0.779232 0.360596 -0.51261 105 98 85
0.39968 0.164167 0.868185 0.594337 0.560031 -0.577172 104 97 88
0.40083 0.16529 0.874 0.838099 0.146097 -0.525591 105 97 86
0.400828 0.165294 0.874019 0.868929 0.0966478 -0.485408 105 97 86
0.402444 0.164366 0.873172 0.69247 0.464916 -0.551669 102 96 88
0.406742 0.165086 0.876095 0.554251 -0.475635 -0.683065 101 96 87
0.405633 0.165708 0.876525 0.465007 -0.621458 -0.630522 103 97 85
0.40569 0.165358 0.876814 0.570764 -0.436096 -0.695737 103 97 85
0.407924 0.165689 0.879284 0.517196 -0.431318 -0.739239 103 97 85
0.407981 0.16655 0.883294 0.567179 -0.451509 -0.688802 101 96 87
0.410098 0.166753 0.885483 0.555511 -0.484316 -0.675904 104 97 85
0.428708 0.160518 0.86391 0.637986 -0.00690911 -0.770017 58 52 41
0.465404 0.152603 0.843503 0.0917371 0.38524 -0.918245 198 165 89
0.511049 0.147628 0.848784 -0.055526 -0.20598 -0.97698 228 225 228
0.518839 0.144861 0.847023 0.803984 -0.262772 -0.533442 226 221 225
0.523521 0.145474 0.84989 0.353682 -0.241231 -0.903724 205 203 211
0.52448 0.145202 0.849553 0.334469 -0.188745 -0.923312 198 198 213
0.534365 0.145142 0.854756 0.476093 -0.200486 -0.856236 211 207 209
0.545637 0.144897 0.864684 -0.268407 0.0383157 -0.962543 199 195 195
0.547966 0.143496 0.865149 -0.206709 0.00779757 -0.978371 197 190 191
0.554873 0.14326 0.867408 0.45566 -0.0845392 -0.88613 245 218 124
0.56446 0.142633 0.873862 0.604701 0.389512 -0.694706 180 153 87
0.555261 0.157917 0.976557 0.791477 0.125688 -0.598136 136 102 38
0.691414 0.132164 0.920897 -0.494685 -0.251373 -0.831924 72 67 60
0.692832 0.132475 0.921432 -0.420469 -0.559058 -0.714605 73 67 60
0.718857 0.133389 0.955169 0.780695 -0.586804 -0.214888 117 104 81
0.764686 0.135148 1.00694 0.471418 0.0213229 -0.881652 116 104 88
0.256514 0.169064 0.74958 -0.0851996 0.187465 -0.978569 4 4 2
0.273669 0.167868 0.749247 0.726159 -0.368043 -0.580722 11 8 4
0.396968 0.165953 0.865687 0.702494 0.428636 -0.568131 108 98 86
0.399554 0.167069 0.866039 0.581189 -0.409403 -0.703285 107 101 87
0.400852 0.165857 0.868261 0.579937 -0.409197 -0.704437 107 99 87
0.402631 0.167178 0.872702 0.517291 -0.449694 -0.728138 107 100 88
0.403784 0.166174 0.873401 0.665999 0.276557 -0.692792 105 98 86
0.405303 0.167144 0.874461 0.483287 -0.56473 -0.668964 106 100 88
0.404477 0.166284 0.876227 0.553247 -0.49957 -0.666594 102 98 88
0.404334 0.167821 0.874528 0.557825 -0.485998 -0.672783 106 100 88
0.406378 0.166655 0.874701 0.528418 -0.554702 -0.642713 105 99 87
0.408597 0.166941 0.877175 0.511981 -0.455819 -0.728083 102 98 88
0.408036 0.167616 0.879122 0.516473 -0.430248 -0.740367 104 99 87
0.409796 0.168403 0.884332 0.504549 -0.44054 -0.742533 105 98 86
0.410535 0.167729 0.883785 0.520923 -0.397861 -0.755212 105 98 86
0.411744 0.167423 0.883914 0.520843 -0.398473 -0.754945 104 97 85
0.430403 0.162469 0.864443 0.572607 -0.0259821 -0.819419 60 53 45
0.465708 0.154107 0.844472 0.248226 0.491119 -0.834976 191 157 83
0.510735 0.148634 0.847674 0.0364 -0.116 -0.992582 227 224 226
0.514943 0.14907 0.849371 -0.0727656 -0.0685604 -0.99499 223 219 222
0.518752 0.148441 0.849066 -0.262317 -0.162605 -0.951183 221 217 218
0.520627 0.14701 0.849543 0.109127 0.133438 -0.985031 218 214 216
0.523553 0.147196 0.849898 0.415387 -0.319353 -0.851744 206 205 213
0.544975 0.146381 0.864927 -0.2466 0.0359384 -0.968451 200 195 195
0.544584 0.146291 0.865802 -0.373799 0.0238406 -0.927203 199 195 195
0.546053 0.14665 0.865764 -0.0291342 0.144988 -0.989004 200 195 195
0.557247 0.145583 0.869619 0.689441 -0.351897 -0.633119 200 172 103
0.560665 0.145259 0.871969 0.315169 0.241885 -0.917693 243 207 119
0.560665 0.145259 0.871969 0.315169 0.241885 -0.917693 243 207 119
0.68224 0.13606 0.926616 -0.66721 -0.162751 -0.726873 80 74 61
0.68275 0.135632 0.925035 -0.635847 -0.207337 -0.743445 79 74 61
0.684342 0.135038 0.923804 -0.649949 -0.208939 -0.730692 78 74 61
0.684342 0.135038 0.923804 -0.649949 -0.208939 -0.730692 78 74 61
0.696899 0.131978 0.904102 -0.670446 -0.1854 -0.718421 132 111 70
0.704925 0.135276 0.940655 0.455374 -0.444603 -0.771338 49 39 25
0.252665 0.149235 0.58778 0.425991 -0.734372 -0.528423 3 3 2
0.254243 0.148295 0.589777 0.152549 -0.889179 -0.431382 4 2 0
0.25428 0.14929 0.59296 0.151824 -0.865002 -0.478249 3 3 0
0.256159 0.149456 0.593783 0.317219 -0.624166 -0.713995 3 2 1
0.256117 0.171218 0.749686 0.687099 0.0859924 -0.721457 5 5 1
0.256312 0.172241 0.749899 -0.116571 0.106357 -0.987471 6 6 1
0.353097 0.160821 0.768034 -0.0343534 -0.853666 -0.519687 122 115 103
0.354048 0.161113 0.775444 0.604072 -0.385282 -0.697607 115 108 95
0.374891 0.162688 0.796922 0.577141 -0.422719 -0.698725 114 105 92
0.398637 0.168282 0.863693 0.513211 -0.483174 -0.709336 109 101 88
0.398999 0.168526 0.864475 0.530227 -0.429257 -0.731162 109 102 88
0.400724 0.168743 0.866048 0.206316 -0.944224 -0.256661 107 100 90
0.402819 0.169572 0.872674 0.33232 -0.396098 -0.855961 106 99 80
0.404583 0.16964 0.874385 0.55305 -0.503929 -0.663469 107 99 80
0.407069 0.169037 0.87537 0.583185 -0.374981 -0.720614 107 102 89
0.407852 0.16826 0.874949 0.554525 -0.485153 -0.676113 106 101 89
0.40701 0.168732 0.874758 0.516692 -0.433949 -0.73805 107 102 89
0.408653 0.168766 0.87665 0.480315 -0.56539 -0.670546 106 101 88
0.410758 0.169109 0.879017 0.561173 -0.45956 -0.688396 106 100 87
0.410163 0.169667 0.880703 0.551738 -0.493955 -0.672007 106 100 88
0.411747 0.169064 0.883153 0.486686 -0.523167 -0.699595 106 99 86
0.41139 0.169993 0.884522 0.537947 -0.52901 -0.656324 106 100 87
0.431175 0.163976 0.864429 0.569731 -0.383615 -0.726806 60 54 43
0.451138 0.158101 0.848153 0.663561 0.152234 -0.732469 201 170 91
0.467099 0.156433 0.84591 -0.0506363 0.466795 -0.882915 189 161 92
0.487906 0.153542 0.84894 0.512909 -0.0811429 -0.8546 231 228 231
0.514111 0.150607 0.849674 -0.0470928 0.124478 -0.991104 221 217 220
0.514097 0.150303 0.849542 -0.1055 0.0568987 -0.99279 240 233 224
0.516844 0.149949 0.848407 0.0465423 -0.0210347 -0.998695 210 209 217
0.526908 0.149105 0.851253 -0.258899 0.233231 -0.937323 210 206 208
0.542407 0.147942 0.865989 0.446016 0.0123397 -0.89494 201 196 199
0.545179 0.148221 0.866179 -0.209309 0.116771 -0.970852 199 193 194
0.544156 0.147941 0.865359 -0.335671 0.0564402 -0.940287 197 192 193
0.549662 0.148224 0.866661 -0.0449239 0.143723 -0.988598 230 204 150
0.555581 0.146692 0.868629 0.46505 0.44452 -0.765591 226 199 121
0.554455 0.147034 0.868648 0.0292605 0.635577 -0.771483 230 205 125
0.558107 0.14735 0.870723 0.0242129 0.0951288 -0.99517 191 159 85
0.559583 0.146993 0.872171 0.505199 0.178177 -0.844409 190 158 85
0.554689 0.163137 0.977328 0.619228 0.388346 -0.682455 129 93 31
0.62166 0.152774 0.967753 -0.30265 0.220434 -0.92726 6 7 6
0.686488 0.136437 0.923384 -0.641232 -0.185242 -0.744652 80 74 60
0.693415 0.134741 0.909372 -0.653202 -0.253547 -0.713471 53 50 41
0.253341 0.151005 0.588356 0.995457 -0.0299277 -0.0903877 3 3 0
0.255242 0.150086 0.591082 0.76526 -0.5343 -0.359026 4 3 1
0.255209 0.150677 0.593001 0.755476 -0.551784 -0.353258 3 3 1
0.257433 0.150184 0.592646 0.663154 0.486642 -0.568688 3 2 1
0.257071 0.15009 0.594773 0.806335 0.243125 -0.53918 4 3 1
0.239313 0.173365 0.729116 0.714069 0.0665493 -0.696905 3 3 0
0.358074 0.16322 0.774847 0.44624 -0.477284 -0.757014 118 110 97
0.404937 0.163318 0.825207 0.400923 -0.738968 -0.541468 107 102 91
0.396608 0.170119 0.861998 -0.369769 -0.337604 -0.865618 109 102 91
0.400606 0.170171 0.86415 0.582538 -0.396371 -0.709605 109 102 89
0.401887 0.171331 0.871869 0.717459 -0.66301 -0.213707 109 102 92
0.408704 0.170669 0.878098 0.580123 -0.390814 -0.714648 108 102 89
0.469465 0.157566 0.845823 -0.165288 0.482387 -0.860223 175 150 88
0.469243 0.157609 0.846467 -0.112232 0.536536 -0.836381 177 152 89
0.480287 0.155915 0.847877 -0.0624999 0.52376 -0.84957 217 209 209
0.487287 0.15485 0.847784 0.261806 0.439356 -0.859316 226 223 225
0.513132 0.151674 0.848584 -0.38373 -0.590119 -0.710289 220 216 219
0.513075 0.151973 0.849181 -0.129284 -0.130214 -0.983021 220 216 218
0.521872 0.150286 0.849949 -0.03807 0.24027 -0.969959 216 211 212
0.533157 0.149755 0.857521 0.0330666 0.0416523 -0.998585 205 203 204
0.553575 0.14853 0.868505 -0.0111867 -0.0597359 -0.998152 226 200 123
0.554989 0.150182 0.870212 0.172698 0.409369 -0.895875 200 170 94
0.688687 0.137143 0.918773 -0.629236 -0.231864 -0.741823 81 74 59
0.687369 0.137483 0.919075 -0.605107 -0.273508 -0.747689 77 73 64
0.698595 0.134296 0.89954 -0.159895 0.679572 -0.715972 55 50 41
0.696454 0.134062 0.904366 -0.664796 -0.117793 -0.737679 99 85 54
0.731777 0.118186 0.822758 0.797785 -0.564862 -0.210878 112 101 82
0.718033 0.138866 0.953367 0.511226 -0.62852 -0.586183 122 106 84
0.252894 0.151157 0.584416 0.986624 -0.0888241 -0.13669 5 2 1
0.253241 0.152205 0.586244 0.985414 -0.0581267 -0.159937 2 1 2
0.257152 0.151981 0.589651 0.942205 -0.334732 -0.0143061 6 4 2
0.256041 0.151502 0.5912 0.882612 -0.372121 -0.287266 5 4 2
0.255926 0.152108 0.593174 0.750098 -0.560709 -0.350655 5 2 1
0.256693 0.153154 0.594266 0.770465 0.255893 -0.583868 8 3 1
0.257273 0.151508 0.594246 0.733531 0.321602 -0.598752 6 2 1
0.256779 0.152841 0.596067 0.747241 0.405171 -0.526752 6 2 0
0.224944 0.164047 0.646069 0.838813 -0.287785 -0.462139 3 2 0
0.226443 0.16386 0.648171 0.63878 0.33659 -0.691858 3 2 0
0.23541 0.174348 0.727232 0.747974 -0.659006 -0.0790331 4 3 0
0.237513 0.174642 0.729716 0.228465 0.0393182 -0.972758 3 3 1
0.266119 0.173714 0.746945 0.29313 -0.161015 -0.942417 5 5 1
0.267281 0.174021 0.74858 0.275912 -0.156642 -0.948333 4 6 1
0.354566 0.16483 0.7669 -0.228969 -0.558052 -0.797591 116 106 89
0.401526 0.172909 0.867418 0.597275 -0.286336 -0.749183 110 103 93
0.400421 0.172906 0.867328 0.594941 -0.334619 -0.730805 110 103 93
0.409758 0.172401 0.878094 0.583083 -0.355122 -0.730687 111 103 89
0.408754 0.172627 0.878256 0.574041 -0.420793 -0.702432 111 103 90
0.41434 0.172207 0.881315 0.559977 -0.455907 -0.691791 109 102 88
0.485597 0.158144 0.84711 -0.14191 0.0451852 -0.988848 212 209 212
0.515738 0.153438 0.850013 -0.318961 0.261587 -0.910954 207 204 212
0.52549 0.152358 0.852916 -0.102863 0.310786 -0.944898 193 191 195
0.527571 0.152571 0.85354 -0.369707 0.262869 -0.891188 205 201 200
0.534513 0.152861 0.857563 -0.118657 0.138625 -0.983211 194 193 199
0.536865 0.151317 0.857955 -0.105151 -0.468256 -0.877314 194 191 199
0.536803 0.151372 0.858108 -0.099234 -0.483886 -0.869487 203 199 200
0.536811 0.151389 0.858145 -0.110312 -0.48139 -0.869537 203 199 200
0.564821 0.150924 0.880873 0.419158 -0.480373 -0.770421 169 145 85
0.5682 0.151466 0.882954 0.161532 -0.383801 -0.909178 119 102 60
0.568051 0.151362 0.881897 0.399123 -0.529734 -0.748387 145 127 77
0.569874 0.151406 0.881779 -0.334652 -0.430549 -0.838234 119 104 63
0.570199 0.15101 0.881531 -0.254815 -0.41883 -0.871579 121 106 65
0.554832 0.167685 0.97698 0.643425 -0.00581765 -0.765487 120 92 34
0.653169 0.151265 0.958499 0.240073 -0.405258 -0.882117 59 55 44
0.653799 0.15054 0.960024 0.465991 -0.410621 -0.783737 108 96 76
0.685912 0.139397 0.917797 -0.664185 -0.238288 -0.708574 59 56 49
0.697586 0.135923 0.899822 -0.417578 0.492887 -0.763342 59 55 48
0.699923 0.135881 0.899747 0.0544822 0.471071 -0.880411 57 54 48
0.7187 0.139889 0.952219 0.572051 -0.563893 -0.595636 125 107 86
0.253806 0.153335 0.588356 0.779258 0.226353 -0.584398 4 2 1
0.254453 0.154511 0.589818 0.534441 0.361632 -0.763934 6 3 4
0.256615 0.153465 0.592467 0.962436 -0.271508 0.000739068 7 2 1
0.25719 0.154553 0.593667 0.997176 0.0179224 -0.0729312 5 3 1
0.256569 0.154405 0.595874 0.791814 0.294541 -0.535048 5 3 0
0.237581 0.176515 0.727183 0.718227 -0.692356 -0.0692383 3 2 1
0.237969 0.177654 0.727584 0.688799 -0.700204 -0.187807 3 2 1
0.239259 0.177315 0.728698 0.96477 -0.240024 -0.107741 4 2 2
0.268522 0.176102 0.748617 0.257143 0.555032 -0.791086 8 7 2
0.27093 0.178047 0.763549 0.71573 -0.687829 -0.120923 13 9 6
0.294268 0.172442 0.754541 0.338943 -0.183856 -0.922667 17 15 8
0.302158 0.172129 0.761581 0.603463 0.0853214 -0.792813 84 77 63
0.30284 0.173568 0.763966 0.655048 0.0382772 -0.754617 86 78 65
0.381098 0.166289 0.795734 0.272481 0.217448 -0.937268 124 116 103
0.41411 0.175173 0.878624 0.538423 -0.494084 -0.682628 111 104 89
0.45858 0.163035 0.849761 0.0616525 0.28265 -0.95724 159 131 72
0.473169 0.160532 0.843097 0.759032 -0.294949 -0.58041 134 104 56
0.474614 0.161351 0.845503 0.584941 -0.330827 -0.740539 140 110 65
0.475836 0.161679 0.847009 0.627655 0.4742 -0.617401 134 105 64
0.476724 0.162008 0.850334 0.237612 0.483537 -0.842456 143 118 71
0.48153 0.160383 0.851474 0.145892 0.466914 -0.872185 193 187 186
0.488257 0.159481 0.848211 0.694116 0.398319 -0.59962 204 202 211
0.522901 0.154256 0.853244 -0.351037 0.299062 -0.887319 207 202 203
0.522213 0.155772 0.853362 -0.242362 0.135454 -0.960684 207 202 202
0.522344 0.155819 0.85363 -0.208039 -0.0116537 -0.978051 207 202 202
0.524238 0.154545 0.853788 -0.28265 0.393944 -0.874596 206 202 201
0.531976 0.15418 0.858911 -0.377407 0.256923 -0.889694 231 224 215
0.542582 0.154177 0.865615 0.00184503 -0.0685412 -0.997647 223 215 205
0.543404 0.154351 0.866249 0.0598498 -0.0109558 -0.998147 221 213 204
0.550442 0.15296 0.868923 0.218618 0.459368 -0.860922 183 157 97
0.553935 0.153763 0.871558 0.0860015 0.274015 -0.957873 184 155 87
0.564027 0.154168 0.880676 -0.0164383 0.0100777 -0.999814 143 123 73
0.568364 0.152733 0.880985 -0.42606 -0.512039 -0.745848 115 100 61
0.571294 0.152667 0.880212 0.0739965 -0.939779 -0.333677 85 74 47
0.634083 0.153302 0.947249 -0.609008 -0.336248 -0.718364 50 46 36
0.636348 0.152714 0.944525 -0.60095 -0.338393 -0.724119 50 47 37
0.654965 0.151306 0.959211 0.543289 -0.662717 -0.515406 60 56 45
0.657396 0.152521 0.958835 0.380093 -0.572205 -0.726712 61 56 46
0.660904 0.150583 0.959088 -0.658202 -0.199253 -0.725995 59 54 44
0.672667 0.148932 0.950939 -0.494079 -0.655845 -0.570748 59 55 44
0.687951 0.139737 0.912968 -0.668261 -0.0708111 -0.740549 52 48 45
0.687951 0.139737 0.912968 -0.668261 -0.0708111 -0.740549 52 48 45
0.687951 0.139737 0.912968 -0.668261 -0.0708111 -0.740549 52 48 45
0.69318 0.138077 0.905607 -0.672516 -0.180598 -0.71771 57 52 43
0.696375 0.138414 0.904402 -0.674724 -0.156645 -0.721256 58 53 44
0.699597 0.137823 0.901476 0.0501961 0.470702 -0.880863 59 54 49
0.815617 0.126495 0.939765 -0.598944 -0.285821 -0.748046 61 56 51
0.815652 0.126328 0.939766 -0.606835 -0.312223 -0.730937 61 56 51
0.815399 0.127142 0.940914 -0.583811 -0.366914 -0.724251 58 54 51
0.816631 0.125905 0.938497 -0.60205 -0.270728 -0.75116 60 55 50
0.818359 0.126358 0.93851 -0.603805 -0.257846 -0.754278 60 55 50
0.253291 0.155309 0.584512 0.712395 -0.674503 -0.19375 4 2 1
0.253343 0.155256 0.588324 0.836382 0.224478 -0.500075 3 1 0
0.257893 0.154535 0.58964 0.958304 -0.285725 0.00383073 3 3 1
0.256414 0.15601 0.595594 0.945864 -0.324521 0.00528985 4 3 1
0.227607 0.170741 0.661784 0.4044 -0.31006 -0.86042 5 3 1
0.22908 0.170808 0.662198 0.462023 -0.299125 -0.834901 6 3 1
0.228992 0.170818 0.662198 0.46871 -0.30682 -0.828355 6 3 1
0.230276 0.170816 0.662916 0.469378 -0.307688 -0.827655 4 4 1
0.238443 0.178899 0.725501 0.908465 0.217962 -0.356628 2 1 0
0.265545 0.177995 0.749021 0.817658 0.422766 -0.390775 7 5 2
0.271051 0.17944 0.762037 0.553011 -0.82236 -0.133804 13 9 5
0.292467 0.174059 0.754061 0.376965 0.519093 -0.767098 37 34 25
0.295238 0.175804 0.764516 0.149397 0.596119 -0.788875 85 78 65
0.376187 0.168275 0.78408 0.120518 -0.684274 -0.719198 130 121 110
0.375065 0.16887 0.787232 0.156741 -0.936898 -0.312497 120 111 101
0.472237 0.16133 0.839569 0.522246 -0.553806 -0.648504 117 86 50
0.472527 0.162031 0.841773 0.542992 -0.479242 -0.689555 114 82 49
0.474049 0.162207 0.843988 0.819531 -0.378082 -0.430609 119 89 52
0.475552 0.162981 0.845484 0.719149 0.385056 -0.578408 104 75 47
0.477406 0.16365 0.851398 0.188819 0.121669 -0.974445 128 104 65
0.482964 0.162291 0.853301 0.243027 0.313254 -0.918047 194 188 191
0.496794 0.158831 0.846859 -0.251511 0.403719 -0.879632 210 209 216
0.50252 0.159918 0.850227 -0.267687 0.389651 -0.881201 207 205 212
0.532221 0.156296 0.860748 -0.307617 0.331002 -0.892081 200 196 195
0.536147 0.156541 0.858859 0.0694171 0.114211 -0.991028 223 214 205
0.542149 0.155458 0.864946 0.118613 0.263853 -0.957242 220 213 202
0.543151 0.155637 0.86524 -0.0347602 -0.0230812 -0.999129 186 180 178
0.543159 0.155546 0.865028 -0.000927389 0.00974509 -0.999952 187 181 178
0.544823 0.15591 0.866393 0.0296798 0.0684445 -0.997213 177 165 158
0.562201 0.154621 0.877972 -0.0775006 -0.411803 -0.907971 192 166 98
0.562922 0.155812 0.88131 0.724665 0.233386 -0.648376 101 81 43
0.564722 0.155772 0.881105 -0.00673744 0.047726 -0.998838 119 101 62
0.563612 0.155907 0.881454 0.0801775 0.0312935 -0.996289 102 83 48
0.566417 0.155744 0.881709 0.118997 -0.208942 -0.970661 90 75 45
0.567655 0.154645 0.881378 -0.0100733 -0.595905 -0.802992 93 79 48
0.632029 0.156457 0.94822 -0.56686 -0.322038 -0.758262 56 49 39
0.638339 0.15418 0.942375 -0.0995077 -0.301813 -0.94816 49 46 39
0.68963 0.140915 0.910174 -0.384094 0.00170529 -0.923293 59 56 50
0.691474 0.140867 0.909235 -0.366419 -0.0218784 -0.930193 60 56 50
0.693751 0.13967 0.90572 -0.662452 -0.286824 -0.692018 57 52 43
0.751654 0.147568 1.00457 -0.679376 -0.0739293 -0.730057 83 76 64
0.752495 0.147048 1.00358 -0.0785486 0.655488 -0.75111 84 76 64
0.798792 0.121753 0.883941 -0.757096 -0.0446254 -0.651778 57 55 53
0.79971 0.121601 0.882265 -0.414067 -0.483071 -0.771487 57 56 52
0.80066 0.121448 0.880522 -0.392842 -0.548066 -0.738444 53 53 48
0.803739 0.120681 0.882505 -0.0314851 0.488891 -0.871777 54 53 50
0.818972 0.127329 0.939757 -0.603669 -0.250111 -0.756987 60 55 51
0.253869 0.156205 0.586101 0.687139 -0.707558 -0.164929 3 3 1
0.254424 0.156872 0.588302 0.652368 -0.417391 -0.632615 3 2 0
0.258015 0.156995 0.592623 0.857324 -0.514264 0.0229898 2 2 1
0.229864 0.171978 0.662231 0.468481 -0.304231 -0.829439 4 3 1
0.22846 0.171983 0.661707 0.295108 -0.213233 -0.931366 9 3 2
0.237357 0.179974 0.723407 0.733484 0.145602 -0.663929 1 2 1
0.295672 0.177202 0.763142 0.221287 0.367066 -0.90349 124 114 94
0.29974 0.177002 0.76414 0.410148 0.58836 -0.696858 124 114 95
0.359536 0.169525 0.764651 -0.195688 -0.658189 -0.726975 123 111 91
0.370337 0.169818 0.784009 0.581047 -0.42067 -0.696721 121 113 103
0.375652 0.169621 0.783222 0.129023 -0.707116 -0.695226 122 113 103
0.412934 0.169231 0.816043 -0.0822043 -0.667468 -0.740087 126 117 101
0.4735 0.163085 0.838874 0.83721 -0.333412 -0.433492 94 64 40
0.474174 0.163306 0.841801 0.593453 -0.300307 -0.746746 88 60 38
0.47502 0.164408 0.84374 0.555889 -0.432086 -0.710133 82 56 38
0.479842 0.165057 0.851364 0.188579 -0.707232 -0.681367 119 97 73
0.47844 0.165274 0.851971 -0.0933408 -0.584552 -0.805969 111 87 58
0.513514 0.159972 0.851404 0.0551102 0.38637 -0.920696 206 202 202
0.51532 0.160074 0.851944 0.197487 0.187415 -0.962224 224 216 205
0.515786 0.159916 0.852416 0.180368 0.152693 -0.971675 225 218 207
0.530744 0.158241 0.86253 -0.415508 0.138523 -0.89898 195 191 190
0.532651 0.158242 0.861972 -0.250588 0.215653 -0.943769 197 193 191
0.540687 0.157582 0.85982 0.700963 -0.636193 -0.322351 175 165 162
0.571094 0.156032 0.881395 0.305453 -0.447154 -0.840685 66 60 43
0.631245 0.158402 0.94799 -0.623859 -0.273336 -0.73218 75 69 56
0.650816 0.154837 0.953562 0.231572 -0.807195 -0.542964 87 81 65
0.656645 0.155531 0.958612 0.226002 -0.747972 -0.624069 90 80 67
0.798445 0.123219 0.882063 -0.413824 -0.416673 -0.809403 59 57 55
0.815425 0.128865 0.939619 -0.59837 -0.287098 -0.748016 58 54 50
0.818978 0.129542 0.939713 -0.695962 -0.385366 -0.605912 61 58 54
0.818844 0.128849 0.938291 -0.714139 -0.259271 -0.650219 61 58 53
0.818651 0.128732 0.938258 -0.604816 -0.249388 -0.756309 61 58 53
0.255131 0.157066 0.583794 0.558267 -0.790082 -0.253195 4 2 1
0.254494 0.158012 0.586661 0.733882 -0.627459 -0.260216 4 1 0
0.255481 0.157548 0.586333 0.694618 -0.692687 -0.194139 3 2 0
0.228614 0.173342 0.661971 0.333074 -0.396387 -0.855534 7 3 1
0.229584 0.173444 0.662781 0.826635 -0.491001 -0.274942 6 3 1
0.236352 0.182265 0.723842 0.654693 -0.21219 -0.725501 2 2 0
0.236649 0.18174 0.726117 0.217466 -0.230853 -0.948375 3 2 1
0.237404 0.182986 0.725465 0.272003 -0.339424 -0.900448 6 4 3
0.264662 0.182224 0.746899 0.192544 0.59457 -0.780649 7 8 2
0.280566 0.181169 0.760301 0.186641 -0.947612 -0.259222 19 14 8
0.302569 0.179553 0.766001 0.10312 -0.390624 -0.914756 120 109 94
0.304843 0.179065 0.767055 0.0930836 -0.0367237 -0.994981 125 114 96
0.381057 0.170931 0.790758 0.180388 -0.950312 -0.253708 123 114 100
0.387248 0.172239 0.798729 0.851923 -0.483515 0.201099 114 104 85
0.388736 0.17079 0.797348 0.893786 -0.385042 0.229976 113 103 84
0.39009 0.172331 0.800889 0.563621 -0.391893 -0.727153 123 114 99
0.391114 0.172186 0.801005 0.570233 -0.328574 -0.75291 130 122 106
0.453888 0.169651 0.853138 0.407105 0.300769 -0.862441 102 69 43
0.455861 0.16976 0.852973 -0.268961 0.306879 -0.912954 111 85 57
0.470733 0.164728 0.83732 0.425519 -0.792143 -0.437543 89 59 38
0.474883 0.165294 0.841041 0.86597 -0.0691019 -0.495299 82 56 38
0.475168 0.166599 0.843733 0.864233 -0.0561553 -0.499947 67 45 34
0.475808 0.16761 0.851326 0.47333 0.119479 -0.872745 74 51 37
0.475777 0.166739 0.851492 0.442314 0.159979 -0.882477 82 57 40
0.477301 0.166326 0.852378 0.189534 0.111224 -0.975554 97 70 44
0.479181 0.167127 0.852253 -0.145992 -0.579814 -0.801562 96 71 49
0.488322 0.165536 0.851526 0.0603937 0.360417 -0.930834 187 182 194
0.512018 0.161667 0.85334 0.0913339 0.57395 -0.813781 205 200 199
0.530058 0.162013 0.865011 -0.426883 0.166599 -0.888828 190 185 183
0.557505 0.15823 0.867505 0.343302 -0.837936 -0.424272 180 158 98
0.560075 0.15839 0.869497 0.0122038 -0.81415 -0.580527 176 155 98
0.63038 0.158837 0.948431 -0.563421 -0.447084 -0.694746 76 71 57
0.635383 0.157771 0.945326 -0.623761 -0.290567 -0.725598 93 87 69
0.654201 0.157153 0.950315 -0.0922344 -0.864263 -0.494513 94 85 69
0.654201 0.157153 0.950315 -0.0922344 -0.864263 -0.494513 94 85 69
0.740612 0.14299 0.9422 -0.695875 0.0932988 -0.712077 61 54 46
0.81916 0.104194 0.767261 -0.635361 -0.307879 -0.708186 44 45 38
0.820543 0.103586 0.765417 -0.607989 -0.472392 -0.638119 31 31 26
0.800732 0.123114 0.878824 -0.416212 0.419828 -0.806543 46 44 42
0.802861 0.122978 0.877041 -0.36104 0.427919 -0.828575 55 54 50
0.817949 0.131089 0.938242 -0.716037 -0.242154 -0.654715 58 55 54
0.29901 0.142624 0.515727 0.755428 -0.425944 0.497896 9 6 5
0.229165 0.175177 0.662729 0.439256 0.00740549 -0.898331 4 3 1
0.228917 0.174852 0.66236 0.699456 -0.462108 -0.545176 4 3 1
0.230031 0.185504 0.723531 0.88817 0.118432 -0.443992 3 2 0
0.233087 0.184277 0.724353 0.823638 0.366596 -0.432699 3 3 1
0.23357 0.185832 0.726296 0.584588 -0.0837381 -0.806997 4 3 2
0.287305 0.182764 0.762507 0.334188 -0.92588 -0.176254 16 11 5
0.288659 0.182477 0.761308 0.583967 -0.790851 -0.183132 15 11 6
0.28861 0.182499 0.763611 0.288993 -0.677231 -0.67664 18 13 7
0.30488 0.180917 0.76639 0.306821 -0.0686138 -0.949291 55 47 37
0.340748 0.17616 0.76551 0.111157 -0.214918 -0.970286 125 114 97
0.341792 0.176325 0.767024 -0.248795 -0.11298 -0.961944 126 116 97
0.492015 0.166302 0.851851 -0.0728173 0.579369 -0.811806 196 193 201
0.503818 0.165459 0.853394 -0.308425 0.330409 -0.892022 199 196 202
0.509894 0.164767 0.856136 -0.182865 -0.045033 -0.982106 192 189 192
0.509968 0.165422 0.857111 -0.148891 0.530764 -0.834338 190 187 190
0.519151 0.16333 0.854964 -0.344494 0.291057 -0.89253 192 187 183
0.531548 0.163744 0.865531 -0.121598 0.120457 -0.985243 183 178 174
0.535001 0.161219 0.861591 0.458181 0.0293846 -0.888373 181 175 172
0.623636 0.161158 0.9449 -0.503935 -0.598225 -0.623038 61 57 46
0.631816 0.160261 0.946981 -0.548937 -0.507686 -0.66402 96 89 74
0.651934 0.15856 0.951191 0.59884 -0.594565 -0.536547 93 86 70
0.688221 0.151338 0.943251 0.22416 0.62709 -0.745996 86 79 65
0.743191 0.143926 0.943638 -0.272805 -0.687334 -0.673163 60 54 45
0.814926 0.106154 0.770714 -0.746443 -0.00866654 -0.665393 52 50 42
0.798491 0.126407 0.881475 -0.163162 -0.892912 -0.419627 61 59 56
0.817678 0.131734 0.939726 -0.69462 -0.384755 -0.607837 59 56 54
0.300148 0.14276 0.515286 0.779155 -0.341617 0.525562 9 6 5
0.29462 0.146879 0.536018 0.5167 -0.817861 0.253229 2 2 0
0.228423 0.177071 0.66137 0.980112 0.111538 -0.164135 5 3 1
0.229395 0.18784 0.723285 0.684731 -0.146203 -0.713981 6 5 2
0.262291 0.186175 0.745181 -0.146887 -0.0162243 -0.98902 7 7 4
0.262262 0.185963 0.744726 -0.155426 -0.139943 -0.977885 7 7 4
0.266636 0.185658 0.747094 -0.0981489 -0.150363 -0.983747 10 7 1
0.269863 0.185747 0.747001 -0.163165 -0.0681535 -0.984242 9 6 3
0.283113 0.183659 0.753938 0.255535 -0.937518 -0.236139 11 9 6
0.333671 0.179113 0.7674 0.195357 -0.00677582 -0.980709 92 83 68
0.332954 0.178098 0.768029 0.158058 0.191795 -0.968624 126 115 96
0.368834 0.172568 0.759645 -0.277805 -0.275825 -0.920187 125 113 94
0.369362 0.171506 0.760747 -0.143141 -0.47936 -0.865867 125 113 93
0.414309 0.173044 0.808164 0.171859 -0.902049 -0.395945 125 114 98
0.4771 0.169702 0.84713 0.422249 -0.776849 -0.46713 57 41 32
0.481515 0.169953 0.850532 0.734865 0.325385 -0.595062 82 58 41
0.486268 0.169534 0.854681 0.272278 0.421041 -0.86521 140 130 122
0.493559 0.168344 0.852964 0.0665136 0.607149 -0.791799 196 190 191
0.494469 0.168681 0.853456 0.229839 0.597029 -0.76859 197 191 192
0.496821 0.16724 0.853025 0.0252895 0.646077 -0.762853 196 191 192
0.509888 0.166143 0.857423 -0.384833 0.202455 -0.900508 200 194 193
0.508421 0.166308 0.858831 -0.14953 0.34523 -0.92653 189 187 190
0.519305 0.165974 0.855856 -0.0890827 0.534121 -0.840701 180 174 176
0.527744 0.164615 0.864748 0.000873616 -0.256906 -0.966436 185 180 176
0.531319 0.164897 0.863048 -0.185593 -0.14675 -0.971607 181 175 170
0.540363 0.163673 0.868757 0.177279 0.564766 -0.805985 158 147 138
0.572466 0.165101 0.906573 0.886456 -0.056981 -0.459291 103 87 43
0.735734 0.146645 0.942376 -0.610748 -0.548325 -0.57125 49 45 38
0.738058 0.14672 0.940726 -0.229646 -0.753079 -0.61655 62 56 47
0.743113 0.145398 0.941858 -0.632132 -0.521647 -0.572968 64 58 50
0.744954 0.145485 0.941816 -0.233759 -0.761836 -0.604121 71 65 56
0.746588 0.14477 0.943567 0.685238 -0.520118 -0.50983 97 87 71
0.745838 0.144753 0.943376 0.72907 -0.429322 -0.533047 95 85 69
0.745809 0.145508 0.94261 0.613255 -0.629452 -0.477188 134 119 95
0.747297 0.14554 0.942919 0.688299 -0.514637 -0.511266 134 120 95
0.817683 0.106861 0.767269 -0.745936 -0.215896 -0.630054 52 51 41
0.818948 0.106605 0.767546 -0.57133 -0.538424 -0.61942 51 49 41
0.820697 0.105799 0.763727 -0.65832 -0.443623 -0.608123 50 48 43
0.819878 0.106193 0.765505 -0.670174 -0.500278 -0.54826 50 47 43
0.302319 0.143614 0.512842 0.838122 -0.256542 0.481392 9 6 5
0.335145 0.153505 0.597994 0.923333 -0.33526 -0.187234 3 2 0
0.340144 0.153613 0.604807 0.80164 0.481382 -0.354463 1 1 0
0.228358 0.189129 0.722013 0.379991 -0.775623 -0.504001 4 2 0
0.239376 0.189219 0.728187 0.287104 -0.15633 -0.945057 6 7 2
0.262392 0.18752 0.744451 -0.158754 -0.126317 -0.979204 8 7 2
0.262355 0.187697 0.74526 -0.144001 -0.188957 -0.97137 7 6 2
0.265417 0.188204 0.746605 0.0770926 -0.0389045 -0.996265 9 6 3
0.265716 0.187955 0.746527 0.0183514 -0.0225226 -0.999578 9 7 3
0.265494 0.186976 0.747255 0.0904469 0.0309092 -0.995422 10 7 3
0.265604 0.188463 0.748022 0.100637 0.00292094 -0.994919 10 7 3
0.296885 0.185795 0.762632 0.636225 0.1321 -0.76011 11 10 5
0.308764 0.184981 0.768291 0.947642 0.069855 -0.311601 16 13 8
0.340602 0.178484 0.763444 0.163088 -0.188152 -0.968505 113 102 86
0.341968 0.178599 0.761778 0.181497 -0.464521 -0.866764 92 81 67
0.334996 0.181442 0.769689 -0.247736 -0.4543 -0.855709 54 48 35
0.342875 0.178273 0.763056 0.166479 -0.207313 -0.964005 114 104 87
0.346796 0.177402 0.765725 0.14756 -0.0482022 -0.987878 128 116 97
0.347575 0.177665 0.7668 0.125979 -0.181765 -0.975239 128 115 96
0.349543 0.177843 0.768563 0.484955 -0.537531 -0.68984 127 115 97
0.364259 0.174723 0.758893 -0.0382048 0.315627 -0.948114 93 82 68
0.366235 0.174685 0.758699 -0.00301543 -0.358511 -0.933521 89 80 63
0.366951 0.174933 0.759478 0.104528 -0.196546 -0.974907 89 80 62
0.368573 0.174908 0.759565 0.309447 0.354063 -0.882543 94 83 67
0.373233 0.173608 0.75786 0.0238648 -0.364586 -0.930864 115 105 80
0.374007 0.173843 0.758649 0.0797125 -0.243163 -0.966705 115 105 80
0.373621 0.172492 0.758722 -0.215777 -0.636929 -0.740109 125 114 93
0.374366 0.172765 0.759845 -0.223951 -0.620518 -0.751534 125 114 94
0.375995 0.173261 0.760958 -0.275124 -0.410178 -0.869518 124 115 94
0.3767 0.173516 0.761367 -0.270478 -0.455667 -0.848062 126 114 93
0.377473 0.173733 0.761717 -0.268556 -0.483521 -0.833118 127 114 94
0.392465 0.175011 0.78855 0.397453 -0.766009 -0.505233 127 119 106
0.417087 0.174657 0.807962 -0.326699 -0.506902 -0.797695 126 116 99
0.436003 0.173957 0.818333 -0.235637 0.295216 -0.925917 129 120 106
0.480608 0.171427 0.849311 0.114379 0.0878199 -0.989548 72 50 35
0.482473 0.172694 0.852696 0.157251 0.543155 -0.824776 54 37 25
0.485397 0.171146 0.853601 -0.0152948 0.584906 -0.810957 96 77 64
0.483838 0.171909 0.853388 0.0645158 0.602192 -0.79574 61 41 28
0.491727 0.170237 0.85411 0.0223471 0.627444 -0.778341 181 174 172
0.494949 0.169671 0.855289 0.0143716 0.63868 -0.769339 193 189 190
0.49575 0.17123 0.858444 0.520212 -0.195735 -0.831305 181 180 189
0.499727 0.170884 0.857782 0.215374 0.47493 -0.853262 189 184 181
0.506863 0.168953 0.856233 0.171271 0.293379 -0.940529 190 182 182
0.508601 0.169942 0.861242 0.402339 0.215851 -0.889681 210 201 191
0.510807 0.167772 0.857124 0.20699 0.483423 -0.850563 193 187 185
0.515571 0.167654 0.857465 -0.172168 0.50918 -0.843264 194 189 189
0.521575 0.16562 0.854438 0.259617 0.679793 -0.685916 209 200 189
0.518045 0.16769 0.858086 -0.31902 0.337138 -0.885756 186 180 175
0.530403 0.166308 0.862423 0.209796 0.369413 -0.905273 179 172 167
0.538231 0.166063 0.871047 0.219166 0.459099 -0.860927 159 149 142
0.622712 0.16573 0.941995 -0.0225813 -0.92244 -0.385481 68 65 52
0.644153 0.161849 0.937924 0.250244 -0.315666 -0.915277 50 48 38
0.643938 0.161519 0.937621 0.111037 -0.00692259 -0.993792 50 47 38
0.645231 0.161626 0.937555 0.125968 -0.346625 -0.929507 50 48 39
0.707327 0.148689 0.922978 0.355706 -0.901087 -0.248024 131 114 88
0.740671 0.14698 0.938948 -0.183305 -0.897212 -0.401759 74 68 59
0.745776 0.146215 0.940655 -0.247033 -0.876749 -0.412659 73 70 67
0.744925 0.147044 0.93959 0.52459 -0.726478 -0.443888 79 73 67
0.815117 0.107606 0.768875 -0.743152 -0.165579 -0.648312 60 57 47
0.820364 0.106208 0.76014 -0.727734 -0.198825 -0.656408 49 47 42
0.821399 0.10533 0.75847 -0.660291 -0.451714 -0.599975 49 47 43
0.803052 0.127822 0.880586 -0.424323 -0.50769 -0.749801 69 64 60
0.30315 0.145522 0.515088 0.643945 -0.623709 0.443082 10 6 4
0.295935 0.149574 0.53216 0.885723 -0.0070015 0.464162 4 1 0
0.296828 0.149694 0.53188 0.906971 0.0096914 0.421081 4 1 0
0.334978 0.154745 0.59996 0.530178 -0.815357 -0.232606 1 1 0
0.336029 0.154568 0.60017 0.62738 -0.662536 -0.409196 2 1 0
0.338118 0.155134 0.602998 0.929827 0.300343 -0.21264 1 2 0
0.338573 0.154998 0.603024 0.865947 0.37441 -0.331592 1 2 0
0.230193 0.190335 0.718586 0.468881 -0.155811 -0.86941 8 5 3
0.241947 0.191307 0.731627 0.23913 -0.518079 -0.821225 7 5 1
0.264361 0.189692 0.746685 0.703361 -0.0110103 -0.710748 8 7 2
0.309983 0.187051 0.774944 0.825666 0.360048 -0.434328 19 12 8
0.348589 0.179799 0.764005 0.198791 -0.636918 -0.744861 62 52 38
0.361147 0.176111 0.75468 -0.208376 -0.257189 -0.943628 83 76 59
0.363445 0.17663 0.758895 0.629434 0.268137 -0.729325 59 51 39
0.365465 0.176485 0.759867 0.338475 0.672836 -0.65782 87 80 65
0.36779 0.176239 0.759259 0.26746 0.685249 -0.677421 89 80 65
0.372186 0.174441 0.755876 0.102034 -0.0993832 -0.989804 93 83 64
0.37309 0.174643 0.756663 0.0948043 -0.176907 -0.979651 94 84 64
0.374609 0.175194 0.758581 0.186098 0.643259 -0.742688 94 84 67
0.373972 0.174846 0.757433 0.07971 -0.258015 -0.962847 94 83 64
0.374895 0.174046 0.759423 -0.0219997 -0.257448 -0.966042 126 115 92
0.375755 0.174253 0.760048 -0.152697 -0.37699 -0.913544 115 105 80
0.37724 0.174673 0.760755 -0.21555 -0.433031 -0.875227 117 106 82
0.375669 0.17588 0.760817 0.0495339 -0.332619 -0.94176 92 84 66
0.378941 0.175417 0.761797 -0.287918 -0.349888 -0.891449 97 86 66
0.392007 0.176888 0.782476 0.720733 -0.6393 -0.268028 129 120 108
0.416918 0.175948 0.807766 -0.259723 0.195787 -0.945627 127 117 99
