ply
format ascii 1.0
element vertex 135
property float x
property float y
property float z
property float nx
property float ny
property float nz
property uchar diffuse_red
property uchar diffuse_green
property uchar diffuse_blue
end_header
-0.180016 0.582279 2.58617 0.787891 -0.557259 -0.262088 5 10 9
-0.168677 0.583383 2.59235 0.0229955 -0.262485 -0.964662 9 15 18
-0.144976 0.583135 2.60131 -0.0203849 -0.396701 -0.917722 10 19 17
-0.122827 0.583414 2.59972 -0.59597 -0.646129 -0.476799 8 16 16
-0.181425 0.586542 2.5845 0.42873 -0.472241 -0.770181 6 12 10
-0.163371 0.584382 2.5877 0.334458 -0.356785 -0.872263 11 21 20
-0.160877 0.586136 2.59163 -0.0231833 -0.751216 -0.65965 11 21 24
-0.152988 0.584644 2.59144 0.0870693 -0.153914 -0.984241 11 20 22
-0.154304 0.583876 2.58915 -0.0220172 -0.030616 -0.999289 11 20 21
-0.147978 0.584652 2.59072 -0.168734 -0.139272 -0.975773 11 21 22
-0.140888 0.588046 2.59283 -0.19116 -0.472106 -0.860566 14 27 30
-0.141172 0.585182 2.59857 0.084323 -0.684004 -0.724589 10 19 19
-0.135634 0.586802 2.60389 -0.0239866 -0.878073 -0.477925 11 20 19
-0.130781 0.586999 2.59846 -0.0905895 -0.926896 -0.364221 11 21 22
-0.123176 0.588103 2.5984 -0.383009 -0.69047 -0.613641 13 22 23
-0.118299 0.584225 2.59745 -0.678559 -0.587339 -0.441124 9 16 16
-0.115128 0.584266 2.59592 -0.688604 -0.556373 -0.465052 8 16 16
-0.190827 0.582119 2.55928 0.76791 -0.555689 -0.318628 4 8 7
-0.187952 0.585911 2.57915 0.684705 -0.688943 -0.237774 5 9 8
-0.186404 0.584758 2.5666 0.856919 -0.431652 -0.281722 5 8 8
-0.175161 0.586685 2.57884 0.520457 -0.432982 -0.735969 26 38 42
-0.172507 0.587365 2.58451 0.525288 -0.425493 -0.736905 10 18 18
-0.16664 0.588124 2.58744 0.533642 -0.15956 -0.830522 10 19 23
-0.157086 0.588695 2.58924 -0.0406784 -0.728727 -0.683595 32 44 52
-0.160598 0.591008 2.58882 0.116649 -0.538126 -0.834753 62 80 88
-0.15557 0.588907 2.59081 0.0909052 -0.529327 -0.843534 29 40 47
-0.155662 0.589353 2.59054 -0.0694878 -0.923077 -0.378285 41 53 62
-0.14979 0.589369 2.59149 -0.142872 -0.271198 -0.951861 34 47 54
-0.144403 0.591572 2.59029 -0.0684534 -0.6563 -0.751388 79 101 113
-0.13953 0.591528 2.58905 -0.487501 -0.384729 -0.78379 87 111 122
-0.131985 0.589565 2.59013 -0.134608 -0.327599 -0.935179 31 46 54
-0.122855 0.591226 2.59125 -0.27948 -0.345116 -0.895983 36 49 59
-0.118842 0.589396 2.59791 -0.291396 -0.862751 -0.413218 12 23 25
-0.115188 0.587963 2.59215 -0.37698 -0.634353 -0.674895 11 23 24
-0.109625 0.586049 2.58451 -0.431696 -0.446841 -0.783564 12 23 22
-0.0999225 0.58461 2.57993 -0.480161 -0.730042 -0.486296 9 16 16
-0.189675 0.584746 2.55054 0.762295 -0.590751 -0.264423 4 8 9
-0.190405 0.582002 2.5414 0.841497 -0.409409 -0.352515 4 8 7
-0.187043 0.588777 2.56142 0.780225 -0.571995 -0.253121 28 40 47
-0.186347 0.586179 2.55557 0.753362 -0.584378 -0.301577 5 9 12
-0.183585 0.590816 2.5792 0.677769 -0.684747 -0.267864 43 60 68
-0.184458 0.590524 2.56662 0.895437 -0.323618 -0.305719 36 51 60
-0.179784 0.592694 2.5823 0.904177 0.0806301 -0.41948 50 68 76
-0.177518 0.59154 2.5846 0.64497 -0.290105 -0.707003 22 32 36
-0.165813 0.593243 2.58748 0.524375 -0.0872084 -0.84701 78 97 108
-0.169127 0.591321 2.58421 0.469386 -0.418506 -0.777515 59 78 88
-0.154606 0.594265 2.58942 0.255044 -0.514943 -0.818404 109 135 150
-0.149498 0.593799 2.5883 -0.172118 -0.298084 -0.938894 108 135 150
-0.132983 0.590387 2.56779 -0.239005 -0.923758 -0.299246 114 144 162
-0.134984 0.593579 2.58858 -0.431799 -0.579442 -0.691229 109 137 153
-0.12961 0.59377 2.58844 -0.123091 -0.951098 -0.283303 106 133 149
-0.118193 0.592272 2.58541 -0.0815792 -0.928948 -0.361111 71 89 102
-0.110947 0.590172 2.5815 -0.445672 -0.437268 -0.781136 24 35 40
-0.104457 0.587646 2.57546 -0.74687 -0.358518 -0.560045 11 18 20
-0.10481 0.591175 2.57294 -0.491427 -0.794322 -0.357145 38 53 59
-0.107842 0.588892 2.57917 -0.780219 -0.261183 -0.568368 15 24 28
-0.100274 0.588151 2.57746 -0.48647 -0.795425 -0.36145 10 18 19
-0.0997168 0.589268 2.56621 -0.492301 -0.794223 -0.356158 13 22 25
-0.095164 0.586288 2.57073 -0.48676 -0.798337 -0.354574 10 17 17
-0.0946411 0.587356 2.5595 -0.492734 -0.794287 -0.355416 11 17 19
-0.187309 0.583964 2.53118 0.90573 -0.270554 -0.326273 5 8 9
-0.185102 0.588604 2.54615 0.7175 -0.654253 -0.239054 11 20 25
-0.185757 0.586531 2.5383 0.862032 -0.421694 -0.281202 6 11 14
-0.183161 0.593985 2.57408 0.602269 -0.765268 -0.227239 74 94 106
-0.184098 0.594078 2.56148 0.784529 -0.530347 -0.32132 99 121 134
-0.183221 0.591577 2.55593 0.854945 -0.436767 -0.279829 52 67 77
-0.180202 0.596279 2.57903 0.903771 -0.288684 -0.316006 110 134 147
-0.170234 0.595273 2.5813 0.535889 -0.360825 -0.763301 112 136 150
-0.168763 0.596244 2.58449 0.538246 -0.339985 -0.771168 115 140 155
-0.168724 0.598707 2.57806 0.535363 -0.361455 -0.763373 132 162 177
-0.164112 0.597945 2.5861 0.281053 -0.758672 -0.58773 99 126 143
-0.164555 0.599018 2.58097 0.394426 -0.674541 -0.624038 104 131 152
-0.147168 0.597708 2.58577 0.107458 -0.930843 -0.349262 114 148 170
-0.142141 0.5917 2.56007 -0.247281 -0.888806 -0.385844 119 152 178
-0.129563 0.596426 2.5797 -0.121416 -0.95156 -0.282475 116 149 172
-0.119751 0.593832 2.57509 -0.145287 -0.949511 -0.278065 110 140 159
-0.10933 0.594238 2.56854 -0.363313 -0.766377 -0.529783 106 131 148
-0.109788 0.594307 2.57829 -0.475376 -0.797116 -0.372323 98 121 135
-0.112819 0.594926 2.57475 -0.322015 -0.795888 -0.512707 108 134 154
-0.104518 0.593046 2.56443 -0.491334 -0.794924 -0.35593 86 107 121
-0.0994295 0.591125 2.5577 -0.492961 -0.794276 -0.355126 34 47 54
-0.183078 0.591813 2.53844 0.635024 -0.738502 -0.226627 59 73 84
-0.179408 0.592992 2.54429 0.631548 -0.739742 -0.232224 108 130 147
-0.177319 0.597266 2.56129 0.857306 -0.428802 -0.284877 140 171 187
-0.158362 0.592064 2.54086 0.0556638 -0.45148 -0.890543 130 163 193
-0.143748 0.59176 2.54832 -0.302099 -0.748208 -0.590695 119 152 181
-0.135006 0.594614 2.55086 0.419183 0.167922 -0.892238 117 154 181
-0.187839 0.598635 2.52733 0.54646 -0.0561778 -0.835599 14 21 25
-0.184377 0.595643 2.52955 0.588241 -0.118142 -0.800009 33 47 56
-0.180487 0.598305 2.5323 0.637954 -0.105408 -0.762826 174 208 218
-0.166715 0.598608 2.53898 0.106132 -0.430097 -0.896523 222 253 253
-0.187962 0.603755 2.52702 0.53521 0.0173259 -0.844541 17 23 28
-0.184062 0.601261 2.52939 0.644562 -0.0250109 -0.764143 42 58 65
-0.180303 0.60389 2.53251 0.621936 0.0128752 -0.782963 185 221 230
-0.169064 0.603111 2.5367 0.106441 -0.430705 -0.896194 226 255 252
-0.166019 0.60223 2.5357 0.105672 -0.43033 -0.896465 226 254 252
-0.158025 0.603034 2.53787 0.104103 -0.428906 -0.897331 227 254 253
-0.154598 0.602535 2.53706 0.0985229 -0.389149 -0.915891 221 252 252
-0.148306 0.603916 2.53778 0.0454427 -0.777694 -0.626998 222 253 253
-0.148319 0.604245 2.53185 0.0993038 -0.434826 -0.895022 219 251 253
-0.191928 0.607222 2.52818 0.777922 -0.00616521 -0.62833 14 22 24
-0.184203 0.606415 2.5292 0.728846 0.0473088 -0.683041 45 61 69
-0.180881 0.609572 2.53285 0.730219 0.055448 -0.68096 180 219 227
-0.180548 0.609663 2.53341 0.776792 0.0369277 -0.628674 189 229 237
-0.176443 0.60637 2.53423 0.653916 0.00336781 -0.75656 209 248 253
-0.157317 0.606659 2.53456 0.103568 -0.434612 -0.894643 223 254 253
-0.151318 0.605046 2.53276 0.100942 -0.434453 -0.89502 221 253 254
-0.154314 0.605852 2.53366 0.102137 -0.435524 -0.894364 222 253 254
-0.191801 0.612011 2.52429 0.924841 -0.129552 -0.357612 15 25 26
-0.187906 0.608529 2.52551 0.768196 0.0597239 -0.637423 18 26 29
-0.184553 0.612264 2.52897 0.744981 0.0435362 -0.665663 42 59 67
-0.177721 0.613015 2.53737 0.925418 -0.107408 -0.363408 204 250 250
-0.177541 0.61284 2.53769 0.925506 -0.10066 -0.365112 206 250 251
-0.188335 0.614367 2.52531 0.722587 -0.0332009 -0.690482 18 28 29
-0.181172 0.615179 2.53176 0.805434 -0.111699 -0.582065 149 192 193
-0.183805 0.618741 2.52884 0.787942 -0.164492 -0.593372 44 66 67
-0.180413 0.620918 2.53196 0.726653 -0.20202 -0.65663 134 191 179
-0.186181 0.622303 2.52538 0.79316 -0.132314 -0.594466 20 31 33
-0.182964 0.624905 2.52933 0.558066 -0.118079 -0.821352 54 87 80
-0.178825 0.62638 2.53165 0.570355 -0.0999351 -0.815297 117 202 169
-0.188906 0.626181 2.52329 0.925183 -0.0534992 -0.375732 18 27 29
-0.181956 0.630039 2.5297 0.756389 -0.150031 -0.636684 66 116 96
-0.178182 0.632025 2.53342 0.810408 -0.178867 -0.557894 113 220 169
-0.180757 0.635518 2.52915 0.789617 -0.317464 -0.525092 81 151 113
-0.17946 0.599373 2.57387 0.839617 -0.537695 0.076985 136 164 179
-0.0982912 0.588787 2.55142 -0.324585 -0.94006 -0.104554 10 17 21
-0.0999913 0.588662 2.54176 -0.406897 -0.911313 -0.0627968 10 17 23
-0.100336 0.589064 2.54178 -0.357899 -0.929833 -0.085547 12 20 26
-0.0937864 0.586175 2.53766 -0.407466 -0.911091 -0.0623318 9 13 17
-0.0937743 0.586907 2.53746 -0.362141 -0.928321 -0.0841027 9 13 17
-0.113965 0.594946 2.55641 -0.591366 0.0118148 -0.806317 108 136 160
-0.108105 0.593623 2.55344 -0.491494 -0.828367 -0.268779 103 127 146
-0.104497 0.592077 2.54873 -0.406437 -0.911348 -0.0652186 75 93 106
-0.106183 0.591693 2.53805 -0.40178 -0.913513 -0.0637715 66 83 96
-0.110696 0.5951 2.54501 -0.416875 -0.907153 -0.0573451 107 133 157
