ply
format ascii 1.0
element vertex 755
property float x
property float y
property float z
property float nx
property float ny
property float nz
property uchar diffuse_red
property uchar diffuse_green
property uchar diffuse_blue
end_header
0.637197 -0.163758 0.775611 -0.6894 -0.0394311 0.723307 9 8 4
0.635333 -0.162518 0.77476 -0.831899 -0.429851 0.350959 15 12 8
0.633658 -0.164085 0.773761 -0.651562 0.113038 0.750126 12 10 6
0.68035 -0.190676 0.640952 -0.180066 0.506715 0.843099 21 17 11
0.67803 -0.190258 0.640174 -0.16918 0.152105 0.973777 19 16 10
0.677624 -0.189845 0.639346 -0.195305 0.21767 0.956282 18 17 11
0.617025 -0.187406 0.635983 -0.836452 0.53729 0.108017 15 14 10
0.707192 -0.168692 0.754456 -0.494353 -0.736746 0.461325 11 8 5
0.706233 -0.168151 0.753486 -0.752169 -0.594334 0.284622 14 11 8
0.707157 -0.168685 0.754452 -0.494336 -0.736722 0.461381 11 8 5
0.706218 -0.16815 0.753478 -0.74573 -0.599907 0.289825 14 11 8
0.705745 -0.168052 0.748626 -0.638965 -0.676371 0.366396 15 13 9
0.705695 -0.168082 0.748634 -0.632535 -0.679693 0.371372 15 13 9
0.708812 -0.168675 0.747228 -0.830665 -0.391522 0.395862 16 13 9
0.644822 -0.155099 0.802941 -0.655564 0.746974 0.110751 5 5 1
0.644216 -0.156654 0.7979 -0.937137 0.347457 0.0323622 7 7 3
0.644177 -0.157872 0.795142 -0.938206 0.345243 0.0240224 8 8 3
0.644311 -0.156743 0.797282 -0.946388 0.322521 0.0181498 7 7 3
0.644685 -0.159137 0.791539 -0.623541 0.776246 0.0929451 9 8 4
0.643585 -0.158687 0.793313 -0.715499 0.695924 0.0612466 8 9 4
0.64352 -0.158805 0.788568 -0.939118 0.254883 0.230416 9 8 4
0.642308 -0.159515 0.787785 -0.856949 0.419468 0.299476 10 8 5
0.678087 -0.187159 0.640496 -0.20238 0.40759 0.890456 20 17 11
0.618267 -0.188221 0.62178 -0.975693 0.175818 0.130812 13 12 9
0.617775 -0.188195 0.623124 -0.886005 0.443431 0.135513 13 12 8
0.617518 -0.188255 0.622654 -0.971253 0.195576 0.135712 12 12 8
0.764248 -0.113825 1.05394 -0.698461 0.700633 -0.145827 19 17 19
0.813285 -0.154926 0.84681 -0.903883 0.426392 -0.0344271 5 5 4
0.663693 -0.158694 0.778445 -0.933111 -0.159915 0.322074 8 8 3
0.662274 -0.16018 0.777217 -0.959343 -0.253307 0.124486 9 8 3
0.643544 -0.156534 0.789493 -0.897181 0.306357 0.318139 9 8 4
0.642375 -0.157246 0.78876 -0.954349 0.297585 0.025725 9 9 4
0.634527 -0.157524 0.775414 -0.691313 -0.0381078 0.721549 14 13 9
0.62011 -0.18373 0.631408 -0.901803 0.41868 0.107044 20 15 12
0.619294 -0.186227 0.625275 -0.909063 0.402074 0.109272 18 14 10
0.662558 -0.15622 0.78451 -0.98744 -0.0566964 0.147471 8 8 4
0.661352 -0.156967 0.775625 -0.928186 -0.27137 0.254617 17 16 11
0.644005 -0.155586 0.786784 -0.996625 0.0639834 0.0514203 11 10 3
0.633672 -0.155758 0.776563 -0.820846 0.122731 0.557807 15 13 8
0.630853 -0.155959 0.773709 -0.628822 -0.0322805 0.776879 17 13 10
0.628002 -0.157959 0.770929 -0.902462 -0.376241 0.209774 13 12 8
0.623392 -0.156869 0.772394 -0.418292 -0.0911546 0.903727 18 15 9
0.619886 -0.183088 0.628929 -0.934838 0.337182 0.111298 21 14 11
0.619003 -0.183502 0.621424 -0.976263 0.121782 0.17911 17 15 10
0.663902 -0.153425 0.788448 -0.871144 -0.00571918 0.490994 9 7 2
0.664987 -0.153344 0.78294 -0.962404 -0.159843 0.219611 5 5 1
0.658925 -0.154963 0.774558 -0.940113 -0.307935 0.146161 17 14 10
0.658235 -0.154998 0.77457 -0.969532 -0.217155 0.113367 17 14 10
0.645137 -0.151372 0.790391 -0.525652 0.288622 0.800242 10 8 3
0.644886 -0.152283 0.784089 -0.966222 0.110842 0.232655 18 15 9
0.633869 -0.155013 0.775348 -0.870482 0.269272 0.412012 10 7 4
0.627991 -0.15379 0.77261 -0.651899 0.521931 0.550106 22 15 11
0.626851 -0.155543 0.771294 -0.61962 -0.242324 0.746559 20 15 10
0.624554 -0.154831 0.770471 -0.558506 0.0588644 0.827409 20 16 11
0.621783 -0.155476 0.771217 -0.627953 0.238877 0.740684 16 13 9
0.621253 -0.178883 0.628866 -0.932309 0.296476 0.207127 18 14 9
0.662839 -0.15212 0.78624 -0.840276 -0.184385 0.509841 10 8 4
0.662676 -0.151279 0.783901 -0.841291 -0.0550413 0.537773 10 9 5
0.661438 -0.152631 0.78218 -0.713507 -0.25845 0.651238 5 5 1
0.659612 -0.152484 0.780494 -0.829028 -0.505349 0.239447 9 5 2
0.644466 -0.151571 0.785557 -0.994721 -0.0376182 0.095471 17 14 9
0.632947 -0.153281 0.773063 -0.94667 0.319117 0.04451 8 6 3
0.654685 -0.161489 0.724247 -0.534059 0.833087 0.14404 15 13 9
0.655061 -0.161317 0.725621 -0.744165 0.663765 0.0750615 19 16 11
0.441751 -0.112793 0.950769 -0.823852 -0.0489798 0.564685 3 2 0
0.441037 -0.113155 0.947955 -0.715238 -0.304137 0.629234 4 2 0
0.440422 -0.112992 0.947329 -0.432372 -0.29502 0.852067 5 3 1
0.665435 -0.14909 0.788997 -0.933599 -0.158204 0.321504 8 6 2
0.663824 -0.149035 0.790689 -0.974238 -0.11433 0.194396 8 5 1
0.66388 -0.150296 0.785556 -0.585487 0.150633 0.796564 13 10 6
0.662979 -0.14892 0.784043 -0.876611 0.142043 0.459758 13 10 7
0.661222 -0.149699 0.783439 -0.877389 -0.110232 0.466944 13 10 7
0.659776 -0.150845 0.782659 -0.825722 -0.445125 0.346478 13 10 7
0.657765 -0.149777 0.781424 -0.836084 -0.421552 0.351081 15 10 8
0.658591 -0.149384 0.782232 -0.876961 -0.434582 0.205129 15 10 8
0.659259 -0.159418 0.727105 -0.436247 0.681962 0.58704 16 13 9
0.65819 -0.159535 0.724688 -0.852078 0.514171 0.0979338 16 14 10
0.657945 -0.159279 0.723517 -0.990663 -0.0744754 0.114191 15 13 10
0.655998 -0.161428 0.716931 -0.586188 0.756687 0.289496 16 12 9
0.656679 -0.162215 0.714672 -0.766953 0.571707 0.291436 11 7 3
0.44141 -0.111507 0.947848 -0.559444 -0.28697 0.777606 5 2 0
0.442139 -0.111776 0.947807 -0.568496 -0.327726 0.754592 5 2 0
0.402521 -0.200714 0.425199 -0.70293 -0.0600413 0.70872 7 1 2
0.402272 -0.199541 0.424201 -0.63188 0.0483636 0.773556 7 2 1
0.399516 -0.200663 0.42464 -0.246794 0.438022 0.864425 6 3 0
0.398676 -0.201292 0.423782 -0.627548 -0.111501 0.770552 4 2 0
0.66331 -0.146832 0.78686 -0.992106 -0.106117 0.0668232 15 12 8
0.662407 -0.146778 0.786555 -0.81302 0.330728 0.479185 12 10 7
0.661492 -0.147332 0.783642 -0.895262 -0.0269395 0.444724 8 5 2
0.659184 -0.14826 0.783194 -0.907429 -0.359398 0.21773 13 10 7
0.657905 -0.147125 0.781766 -0.933683 -0.229635 0.274779 18 14 10
0.660819 -0.156612 0.726394 -0.994253 0.0852139 0.0648001 20 18 11
0.658711 -0.157422 0.725186 -0.535192 0.127642 0.835031 21 18 12
0.659328 -0.158482 0.722185 -0.976366 -0.147433 0.158031 20 17 13
0.658911 -0.158679 0.722802 -0.887854 -0.351977 0.296357 16 14 11
0.65583 -0.159173 0.71681 -0.738762 0.481639 0.471439 8 7 3
0.44152 -0.10831 0.957207 -0.707508 0.607042 0.361846 2 1 1
0.442517 -0.110392 0.949546 -0.931186 0.137473 0.337629 3 2 1
0.439386 -0.110328 0.949466 -0.867432 -0.23422 0.438979 4 3 1
0.438864 -0.11041 0.948734 -0.963548 -0.0770343 0.256204 5 3 0
0.436826 -0.110229 0.945838 -0.279158 0.18349 0.942551 6 4 1
0.400014 -0.197674 0.422656 -0.575251 0.0421522 0.81689 4 2 0
0.400921 -0.197439 0.42188 -0.660654 0.445394 0.604285 6 2 1
0.397235 -0.198761 0.423316 -0.120207 0.0154963 0.992628 3 3 1
0.396297 -0.198452 0.420516 -0.487458 -0.347839 0.80087 3 3 0
0.396526 -0.197061 0.421866 -0.370002 -0.383963 0.845973 3 4 1
0.393628 -0.19924 0.414057 -0.786676 -0.383303 0.483963 6 4 1
0.664704 -0.143689 0.790931 -0.997555 0.0464646 0.0521992 7 7 2
0.663549 -0.145535 0.788689 -0.984267 -0.143157 0.103562 10 7 2
0.657639 -0.145687 0.784365 -0.890833 -0.401575 0.212493 13 11 7
0.656846 -0.146035 0.780276 -0.770595 -0.572333 0.28039 14 11 9
0.659302 -0.154939 0.725187 -0.820539 -0.503922 0.269776 20 19 13
0.658925 -0.156079 0.723098 -0.883603 -0.369559 0.287528 20 18 13
0.658893 -0.156471 0.718127 -0.986054 -0.120456 0.114837 21 16 13
0.442942 -0.106998 0.956988 -0.542832 0.543777 0.640031 2 2 0
0.440812 -0.107847 0.952174 -0.900816 -0.305586 0.30846 3 2 2
0.440344 -0.108972 0.949596 -0.796952 -0.400606 0.452086 3 3 1
0.437963 -0.109091 0.946791 -0.897462 -0.0705758 0.435409 5 5 1
0.402809 -0.19659 0.421954 -0.234948 0.166124 0.957707 9 2 2
0.397635 -0.195641 0.42208 -0.213755 0.205353 0.95506 3 3 0
0.396739 -0.19571 0.41935 0.313657 0.628016 0.712191 3 3 0
0.665936 -0.141858 0.793042 -0.998082 0.05513 0.0281487 5 6 1
0.665841 -0.141844 0.793087 -0.998956 0.0337695 0.0307604 5 6 1
0.663234 -0.142525 0.786107 -0.990308 0.134505 0.0346284 15 14 8
0.664172 -0.142398 0.784712 -0.996885 0.0728091 0.0303157 15 15 9
0.65665 -0.143351 0.784221 -0.501612 -0.605676 0.617691 17 15 10
0.44656 -0.105665 0.957762 -0.322808 0.178757 0.929431 3 2 0
0.444281 -0.105637 0.957037 -0.364875 0.14106 0.920309 3 3 0
0.441736 -0.106017 0.955718 -0.811528 -0.0752676 0.579445 2 1 0
0.439497 -0.106437 0.95151 -0.898164 -0.0158909 0.439373 3 3 1
0.44089 -0.107361 0.951368 -0.856458 -0.337547 0.390565 3 3 2
0.438585 -0.107653 0.949675 -0.922349 0.00229119 0.386351 3 3 1
0.438537 -0.106969 0.94952 -0.441218 -0.411558 0.797462 3 4 0
0.436873 -0.107888 0.945024 -0.176247 0.437708 0.881674 7 3 1
0.40067 -0.194887 0.419439 -0.319166 0.846658 0.425798 4 2 1
0.396248 -0.194467 0.419715 -0.235559 0.43765 0.867741 3 2 0
0.393029 -0.193223 0.419328 0.298236 0.656832 0.692551 6 3 1
0.665694 -0.139667 0.78946 -0.99452 0.0860875 0.0593171 7 5 0
0.663841 -0.141233 0.788824 -0.995183 0.0845938 0.0495361 8 7 1
0.66382 -0.141261 0.788694 -0.994259 0.0851138 0.06484 8 7 1
0.443175 -0.105154 0.955632 -0.706819 0.317721 0.632029 3 2 1
0.440827 -0.105551 0.952037 -0.811301 -0.324536 0.486279 2 1 0
0.441842 -0.105978 0.951834 -0.556314 -0.596808 0.578217 2 2 0
0.437481 -0.105071 0.949904 -0.589317 -0.302486 0.749138 5 4 1
0.393004 -0.190922 0.414935 0.0325049 0.896772 0.441297 5 3 1
0.663873 -0.138203 0.786015 -0.988631 0.148973 0.0203764 13 12 7
0.664668 -0.138722 0.784333 -0.990311 0.135336 0.031113 15 14 10
0.444245 -0.103599 0.954687 -0.829521 0.277073 0.484898 3 1 0
0.44155 -0.10339 0.954047 -0.216404 0.741079 0.635587 3 1 0
0.439495 -0.104295 0.951537 -0.837219 0.00272872 0.546861 2 2 1
0.440276 -0.104365 0.952653 -0.936392 -0.0738427 0.3431 1 1 0
0.393028 -0.188671 0.410062 0.0440938 0.897386 0.439037 3 2 0
0.844289 -0.146387 0.765489 -0.852841 0.0604536 0.518659 5 8 6
0.842299 -0.146754 0.765485 -0.750584 0.355092 0.557255 5 8 5
0.66471 -0.136146 0.789092 -0.958926 0.139835 0.246793 7 5 1
0.663706 -0.137663 0.786201 -0.988364 0.150685 0.0207554 12 11 7
0.440887 -0.101802 0.952654 -0.918182 0.219002 0.330122 2 2 0
0.441429 -0.101506 0.95262 -0.6658 0.420159 0.616585 3 2 0
0.440298 -0.102394 0.951178 -0.798806 0.281967 0.531417 2 2 0
0.439842 -0.102411 0.950519 -0.732871 0.386782 0.559731 2 3 1
0.438578 -0.103002 0.949082 -0.850559 0.326525 0.412227 5 4 2
0.39592 -0.186876 0.404412 0.0351513 0.898434 0.437699 6 2 1
0.395106 -0.188202 0.403792 0.398305 0.385577 0.832276 4 1 0
0.845974 -0.144968 0.767013 -0.86611 -0.0544184 0.496883 7 7 6
0.664472 -0.13376 0.78614 -0.934896 0.14778 0.322694 8 8 6
0.66363 -0.133816 0.787399 -0.951075 0.244636 0.188703 10 9 6
0.442449 -0.101107 0.952669 -0.216286 0.51768 0.827785 4 2 0
0.440624 -0.100428 0.9509 -0.806959 0.0963329 0.582698 1 2 0
0.439121 -0.101116 0.949412 -0.742803 0.260915 0.616576 4 4 2
0.437779 -0.101664 0.948234 -0.856945 0.193573 0.477677 6 4 1
0.397768 -0.185421 0.400101 -0.25183 0.908345 0.333903 7 2 1
0.391775 -0.185744 0.400636 0.0574598 0.880667 0.470238 9 4 1
0.848978 -0.140961 0.774179 -0.534839 0.32924 0.77817 7 6 4
0.848635 -0.141546 0.772663 -0.552442 0.382943 0.74038 8 7 6
0.848684 -0.141431 0.769856 -0.76127 0.444754 0.471871 9 7 6
0.846827 -0.142182 0.767684 -0.782779 0.399329 0.477277 8 7 6
0.844662 -0.142858 0.765925 -0.523413 0.369361 0.767861 6 8 6
0.664871 -0.133041 0.788115 -0.951432 0.172614 0.254915 7 5 1
0.441261 -0.0990305 0.951346 -0.842892 0.162952 0.512815 2 1 0
0.441403 -0.0998527 0.951685 -0.841877 0.0863812 0.532711 2 1 0
0.397516 -0.182649 0.399715 -0.455853 0.791273 0.407536 7 2 1
0.394901 -0.184756 0.396556 -0.0924677 0.563832 0.820697 7 2 0
0.391729 -0.183489 0.395455 -0.457001 0.827741 0.325569 18 9 1
0.390279 -0.185026 0.391225 -0.70268 0.623568 0.342642 80 59 39
0.390836 -0.18481 0.392864 -0.527436 0.668896 0.523822 77 61 41
0.848153 -0.139513 0.767727 -0.642272 0.670202 0.371909 9 8 5
0.846021 -0.140198 0.765923 -0.65456 0.572205 0.494098 6 7 5
0.843964 -0.140565 0.763108 -0.62417 0.713553 0.318206 6 8 6
0.666353 -0.132521 0.780099 -0.785996 -0.564591 0.251886 8 8 6
0.442886 -0.0973988 0.951346 -0.600783 -0.0307072 0.798822 3 2 0
0.442165 -0.097933 0.951564 -0.659383 0.225434 0.717212 2 2 0
0.442091 -0.0981885 0.95124 -0.600327 0.190207 0.776807 2 2 0
0.434897 -0.0983797 0.949115 -0.25358 -0.147627 0.955983 5 4 2
0.398012 -0.180857 0.395313 -0.103004 0.191406 0.976091 5 3 0
0.394841 -0.182024 0.394573 -0.0462706 0.682248 0.729655 8 4 0
0.395292 -0.181587 0.392311 0.357186 0.380565 0.852988 9 5 0
0.39214 -0.181382 0.389473 -0.736056 0.589484 0.33276 80 60 38
0.391559 -0.182587 0.391197 -0.897133 0.2445 0.36793 79 61 39
0.391559 -0.182587 0.391197 -0.897133 0.2445 0.36793 79 61 39
0.851887 -0.135307 0.774581 -0.926191 0.362415 0.104043 3 3 1
0.85102 -0.136441 0.772318 -0.912721 0.391544 0.116766 6 7 4
0.85055 -0.137167 0.76778 -0.734792 0.671399 0.096457 8 8 4
0.850393 -0.137629 0.76974 -0.829457 0.473157 0.296856 7 8 4
0.848376 -0.137503 0.765336 -0.768345 0.521503 0.371053 7 8 5
0.845585 -0.137835 0.763957 -0.486484 0.54746 0.680897 5 8 4
0.652169 -0.151896 0.623478 -0.318243 0.798749 0.510609 13 13 10
0.647591 -0.151466 0.62239 -0.314527 0.801516 0.508572 4 4 2
0.648456 -0.151656 0.621885 -0.311913 0.827192 0.4674 4 3 1
0.439124 -0.0963169 0.950713 -0.282937 -0.253607 0.925003 5 3 1
0.434038 -0.0961982 0.949358 -0.457011 -0.129107 0.880041 5 4 1
0.398868 -0.178734 0.386276 0.00288749 0.77602 0.630702 9 5 0
0.399713 -0.180388 0.391443 -0.104984 0.595131 0.796742 6 4 1
0.395312 -0.179043 0.38886 0.0097741 0.787557 0.616165 40 28 16
0.39513 -0.179793 0.389365 -0.0842897 0.72901 0.679293 33 23 12
0.394838 -0.178546 0.389282 -0.0160146 0.721578 0.692148 46 33 20
0.851826 -0.134591 0.768954 -0.845544 0.531314 0.0525337 7 8 6
0.851066 -0.13518 0.764058 -0.931037 0.327039 0.161913 7 7 5
0.851335 -0.135776 0.765142 -0.986486 0.163728 0.00615627 2 2 1
0.848084 -0.1356 0.763316 -0.965603 0.0189216 0.259333 5 6 3
0.651653 -0.149821 0.620713 -0.314065 0.821297 0.476271 3 3 0
0.442461 -0.0943719 0.95166 -0.820787 -0.0697687 0.566958 2 2 0
0.440435 -0.0944289 0.950378 -0.394711 -0.00416718 0.918796 5 2 1
0.440312 -0.095202 0.95038 -0.509633 -0.0288106 0.85991 5 3 1
0.439713 -0.0941331 0.950469 -0.434238 0.0912043 0.896169 5 3 1
0.433124 -0.0943691 0.94886 -0.627633 0.196965 0.753181 5 3 1
0.402822 -0.176008 0.389397 -0.0176373 0.789071 0.614049 5 2 1
0.402401 -0.177415 0.384884 0.180755 0.79674 0.576656 5 3 1
0.397984 -0.176714 0.383189 0.223785 0.754721 0.616698 77 59 39
0.399503 -0.177708 0.388599 0.0507359 0.881329 0.469772 5 4 1
0.396782 -0.177866 0.388561 0.0530513 0.872028 0.486572 12 7 1
0.394541 -0.177689 0.388904 0.00750092 0.764442 0.644649 68 53 36
0.391765 -0.177816 0.386674 -0.428038 0.20873 0.879327 76 57 33
0.853644 -0.132653 0.764199 -0.783961 0.534797 0.315273 8 8 6
0.44219 -0.0938458 0.950958 -0.618877 0.0425493 0.784335 2 1 0
0.440482 -0.0932824 0.950388 -0.555704 0.0500063 0.829875 5 2 1
0.440283 -0.0928159 0.950434 -0.574714 0.0185821 0.818143 5 2 1
0.437906 -0.0927633 0.949791 -0.18938 0.440833 0.877384 6 4 2
0.432873 -0.0940184 0.948603 -0.5699 0.3567 0.740256 4 3 1
0.420209 -0.17434 0.383372 -0.915071 0.131462 0.381266 5 3 0
0.416716 -0.175038 0.378378 -0.663879 0.505054 0.55153 6 2 0
0.412907 -0.176025 0.376875 -0.416349 0.599131 0.683882 5 3 0
0.413757 -0.175506 0.375268 -0.138973 0.517355 0.844411 5 3 0
0.402952 -0.173877 0.383484 -0.16965 0.892506 0.417914 7 4 1
0.401606 -0.17568 0.382621 0.230613 0.745005 0.625927 9 7 0
0.398728 -0.176206 0.382485 0.0147938 0.902229 0.431004 74 59 40
0.390637 -0.175182 0.38496 0.31521 -0.261213 0.912365 63 46 25
0.85321 -0.130973 0.769978 -0.870462 0.47954 0.111076 3 7 5
0.440876 -0.0924848 0.950421 -0.512626 0.120221 0.850154 4 2 1
0.440715 -0.0913869 0.950417 -0.570389 -0.00483479 0.82136 4 3 0
0.440317 -0.091343 0.950452 -0.56751 -0.0426329 0.822262 4 3 0
0.434895 -0.0915171 0.949432 -0.18695 0.514335 0.836964 3 5 0
0.433963 -0.0922319 0.949083 -0.419175 0.400022 0.81503 5 4 1
0.431837 -0.0921076 0.948926 -0.189432 0.583275 0.789877 4 4 1
0.428624 -0.0924936 0.945515 -0.343898 -0.471809 0.811868 4 2 1
0.419062 -0.172566 0.383829 -0.924941 0.102888 0.365922 5 4 0
0.418329 -0.172077 0.378556 -0.857122 0.100571 0.505201 5 2 0
0.414625 -0.173395 0.376365 -0.444161 0.123922 0.887336 6 2 0
0.411895 -0.173562 0.37379 0.284304 -0.307625 0.908041 5 3 0
0.398597 -0.173753 0.378663 0.06356 0.856239 0.512654 79 59 35
0.397985 -0.173782 0.379693 0.226418 0.751759 0.619349 79 59 35
0.440284 -0.0894662 0.951179 -0.643104 -0.070277 0.762547 3 3 0
0.441852 -0.0905501 0.950959 -0.43397 -0.190188 0.880624 2 2 0
0.43914 -0.0904745 0.950325 -0.310262 -0.113321 0.943873 4 4 0
0.436056 -0.0903559 0.949323 -0.715199 -0.271017 0.644235 4 6 1
0.436556 -0.0904572 0.949602 -0.756342 -0.451591 0.4733 4 5 0
0.434473 -0.0897301 0.948365 -0.803599 0.0481024 0.593224 5 4 0
0.430754 -0.0904834 0.947454 -0.189422 0.233907 0.953628 7 6 2
0.428146 -0.0906296 0.945902 -0.612497 -0.12505 0.780519 4 3 1
0.418504 -0.169685 0.386511 -0.877804 0.338005 0.33943 5 2 0
0.417926 -0.169667 0.377895 -0.893478 0.187796 0.407958 7 2 1
0.419246 -0.171496 0.379034 -0.676091 -0.544605 0.496292 5 3 0
0.415088 -0.170451 0.375685 -0.185966 -0.611983 0.768696 7 4 1
0.416283 -0.171959 0.375964 -0.780491 -0.298075 0.549532 6 1 0
0.402207 -0.170367 0.377534 -0.918308 -0.00506777 0.395833 74 58 39
0.675582 -0.141042 0.618203 -0.28436 0.297289 0.911459 10 10 7
0.672997 -0.142546 0.615409 -0.357981 0.0559557 0.932051 12 9 7
0.634514 -0.141276 0.610185 -0.33148 0.407148 0.851088 10 10 6
0.632197 -0.141337 0.608915 -0.461189 0.366585 0.808035 8 10 6
0.628032 -0.140924 0.604356 -0.763303 0.322485 0.559797 10 8 6
0.441479 -0.0885636 0.952033 -0.690254 -0.0153924 0.723404 2 2 0
0.440085 -0.0894178 0.951106 -0.622901 -0.0108142 0.782226 3 3 0
0.438695 -0.0885457 0.950426 -0.678812 -0.0101288 0.734242 4 5 1
0.435301 -0.0883973 0.949378 -0.629828 -0.263525 0.730665 5 5 1
0.429289 -0.0895333 0.946526 -0.302695 0.273853 0.912897 6 5 1
0.427566 -0.0887155 0.946648 -0.219037 0.450005 0.865747 4 3 0
0.41932 -0.166572 0.379695 -0.731072 0.594939 0.334036 6 3 0
0.419832 -0.167258 0.384189 -0.863565 0.0775442 0.49824 4 2 0
0.416496 -0.166973 0.376216 -0.646124 0.281192 0.709546 7 3 0
0.411182 -0.168118 0.377662 -0.0760451 -0.449729 0.889922 7 2 0
0.40657 -0.16769 0.380795 0.407984 0.293122 0.864655 6 3 1
0.911624 -0.105665 0.903113 -0.842068 -0.412068 0.348024 14 12 10
0.67467 -0.138048 0.618467 -0.888563 -0.310293 0.337896 10 10 7
0.674436 -0.14 0.615796 -0.729573 -0.122315 0.672876 12 9 7
0.633641 -0.139031 0.608666 -0.394607 0.345436 0.851446 9 9 6
0.631598 -0.139182 0.607395 -0.476518 0.383933 0.790902 9 10 6
0.627862 -0.139004 0.601689 -0.611711 0.767863 0.190255 10 9 7
0.628406 -0.139291 0.600048 -0.347645 0.88006 0.323475 9 7 5
0.622159 -0.139203 0.599741 -0.317228 0.89992 0.299183 8 6 4
0.618657 -0.140807 0.594977 -0.212849 0.371255 0.903806 9 9 6
0.620558 -0.140153 0.594924 -0.563415 0.415239 0.714241 10 9 6
0.615585 -0.14099 0.595256 -0.304214 0.888685 0.343064 9 9 7
0.441581 -0.0868929 0.953634 -0.934727 0.0234653 0.354591 3 1 1
0.441066 -0.0866865 0.952182 -0.69441 -0.137208 0.706377 2 1 0
0.439791 -0.0875137 0.951356 -0.707411 -0.0824757 0.701974 2 3 0
0.433658 -0.0879083 0.948707 -0.460937 -0.396791 0.793785 8 4 2
0.432573 -0.0881443 0.946203 -0.182745 0.4763 0.860083 7 4 1
0.429444 -0.0880145 0.946524 -0.185426 0.317283 0.930026 5 3 1
0.423798 -0.164202 0.382052 -0.111379 0.924319 0.365007 3 4 0
0.42096 -0.163858 0.380378 -0.595348 0.735634 0.323116 4 2 0
0.417921 -0.164027 0.378517 -0.17317 0.490205 0.854231 9 3 0
0.413358 -0.164187 0.375489 0.308385 0.613441 0.727041 8 3 1
0.41351 -0.164246 0.375295 0.321904 0.581621 0.747057 8 3 1
0.409094 -0.164155 0.377581 0.372565 0.43111 0.821791 6 2 1
0.408396 -0.164133 0.377062 0.408394 0.279835 0.868854 8 2 1
0.404525 -0.164435 0.376851 0.37171 0.47975 0.794778 22 13 5
0.404797 -0.164384 0.376239 0.371239 0.481403 0.793998 25 16 6
0.404797 -0.164384 0.376239 0.371239 0.481403 0.793998 25 16 6
0.635747 -0.13692 0.60814 -0.358793 0.592598 0.721177 9 9 7
0.633199 -0.136989 0.607348 -0.0833854 0.566116 0.820097 10 9 7
0.633126 -0.136893 0.607107 -0.134322 0.628313 0.766277 10 9 7
0.630575 -0.13694 0.606129 -0.501003 0.542082 0.674643 10 10 7
0.628669 -0.136737 0.603973 -0.86576 0.321052 0.383908 11 10 7
0.629088 -0.138017 0.604465 -0.798583 0.415136 0.435807 10 9 7
0.622746 -0.138271 0.594952 -0.462742 0.558469 0.688463 7 6 4
0.618876 -0.138601 0.592611 -0.240356 0.381544 0.892554 9 9 8
0.617599 -0.138241 0.592915 -0.0778134 0.0914798 0.992762 9 9 8
0.584548 -0.137222 0.599635 0.0833884 0.339175 0.93702 12 8 6
0.427534 -0.0852982 0.947676 -0.652157 0.18974 0.733955 4 3 0
0.426161 -0.0858236 0.946735 -0.535479 0.0818792 0.84057 4 2 0
0.419385 -0.161949 0.377599 -0.0396768 0.821961 0.568161 9 3 2
0.417765 -0.161121 0.377171 -0.0970173 0.725442 0.681411 7 2 1
0.415003 -0.162969 0.375139 -0.0114543 0.668282 0.74382 8 3 1
0.622599 -0.135976 0.593215 -0.79088 -0.0896719 0.605365 9 10 6
0.618844 -0.136575 0.592391 -0.500618 -0.053794 0.863996 8 10 7
0.597407 -0.13519 0.594154 -0.306976 -0.207037 0.928925 9 9 6
0.594209 -0.135255 0.593392 -0.132426 -0.281652 0.950334 12 9 6
0.589829 -0.13462 0.595146 -0.138577 -0.574073 0.806992 12 9 6
0.581481 -0.13472 0.59962 -0.311109 0.496017 0.810665 12 8 6
0.584287 -0.134873 0.598505 -0.617251 0.1365 0.774835 12 8 7
0.419371 -0.159368 0.373983 -0.0388434 0.809741 0.585501 7 3 0
0.416449 -0.160309 0.374669 0.208015 0.577297 0.789594 9 4 2
0.413389 -0.160508 0.373384 0.0489523 0.434893 0.89915 10 3 2
0.409745 -0.160096 0.376829 0.404567 0.293052 0.866283 10 3 1
0.406261 -0.158371 0.37532 0.293476 0.0730835 0.953169 13 7 1
0.40669 -0.158454 0.375367 0.409451 0.273111 0.870495 10 5 1
0.406006 -0.16049 0.375829 0.390595 0.368977 0.843381 16 6 1
0.405218 -0.159087 0.372795 0.254936 0.0575391 0.965245 76 60 38
1.3103 -0.126231 0.759272 -0.89004 0.283595 -0.356934 13 12 10
0.619685 -0.134399 0.591788 0.104157 0.238875 0.965448 8 10 7
0.595136 -0.132841 0.594892 -0.407923 -0.36132 0.838479 10 10 6
0.591434 -0.131269 0.596293 -0.126324 -0.533493 0.836318 9 10 6
0.588508 -0.132619 0.597323 -0.308912 0.481472 0.820218 10 9 6
0.587333 -0.132975 0.595257 -0.181229 -0.189097 0.96509 10 9 6
0.387717 -0.0886682 0.890381 -0.203887 0.853237 0.480017 15 15 11
0.414901 -0.157911 0.372451 -0.127707 -0.306737 0.943188 7 3 0
0.41568 -0.157377 0.373116 0.351537 0.319888 0.879826 6 3 0
0.411604 -0.157873 0.372915 0.301834 -0.288021 0.908812 5 3 0
0.408595 -0.156196 0.375526 0.317284 0.594049 0.739214 5 3 0
0.407669 -0.15569 0.374282 0.388147 0.375392 0.841678 8 4 1
0.404061 -0.155394 0.375009 0.268703 0.449843 0.851728 71 54 36
0.403772 -0.155511 0.374686 0.225269 0.494465 0.839499 81 62 41
0.402556 -0.155994 0.373184 -0.0770412 0.813702 0.576155 80 59 36
1.31116 -0.123515 0.763136 -0.775036 0.567817 -0.277316 16 15 12
0.593794 -0.129089 0.59597 -0.730576 0.149148 0.666344 9 9 7
0.589443 -0.128816 0.596385 -0.479674 -0.140426 0.866137 9 9 6
0.586839 -0.130884 0.596583 -0.468697 -0.261435 0.843786 10 10 6
0.434555 -0.0760527 0.990303 -0.454547 -0.648489 0.610613 4 3 1
0.389282 -0.0873968 0.889807 -0.215342 0.839674 0.498573 15 14 11
0.416159 -0.154838 0.375741 -0.103756 -0.449471 0.887249 6 3 1
0.412935 -0.154956 0.374388 0.0879954 -0.573329 0.814586 7 3 1
0.409708 -0.154401 0.376698 0.329999 0.563728 0.757173 9 4 2
0.409089 -0.15495 0.376066 0.382616 0.397134 0.8342 8 4 2
0.40547 -0.152994 0.373732 -0.12825 0.489846 0.862324 58 45 29
0.404039 -0.154832 0.374736 0.227465 0.426273 0.875529 76 58 39
1.3136 -0.119259 0.787011 -0.7656 0.575012 -0.288476 5 5 1
1.31758 -0.121539 0.771587 -0.680564 -0.103343 0.725364 9 6 2
1.31104 -0.1219 0.760908 -0.778567 0.558949 -0.285325 13 12 9
0.593549 -0.126422 0.596938 -0.53967 0.47858 0.692616 10 9 6
0.592034 -0.12663 0.595289 -0.247672 0.303942 0.919934 11 9 7
0.589859 -0.126729 0.594115 -0.124667 -0.101078 0.987037 11 9 7
0.585852 -0.126612 0.594208 0.0300961 -0.249703 0.967855 10 8 6
0.393167 -0.0859151 0.889573 -0.513115 0.562414 0.648385 13 13 10
0.39205 -0.085799 0.888818 -0.653663 0.588377 0.475959 12 13 10
0.389496 -0.0860588 0.887133 -0.443857 0.790953 0.42117 16 13 11
0.41299 -0.151283 0.3766 -0.383402 -0.738952 0.554033 5 3 0
0.408358 -0.152744 0.373676 0.271797 0.519735 0.809939 9 5 2
0.40964 -0.152508 0.373375 0.247831 0.693462 0.676528 9 4 2
0.405963 -0.152366 0.37361 -0.138553 0.413573 0.899867 43 32 19
0.399626 -0.150177 0.373643 0.270371 -0.194265 0.942953 72 53 30
0.396187 -0.149643 0.376514 -0.395697 0.268327 0.878308 60 43 25
1.31399 -0.115453 0.787712 -0.594155 0.79342 0.13215 5 4 2
1.31793 -0.116135 0.784824 -0.907329 0.114661 -0.404483 5 5 2
1.32044 -0.115715 0.779084 -0.911289 -0.341787 0.229638 6 6 3
1.32047 -0.118195 0.773479 -0.638742 -0.374992 0.671855 5 6 2
1.31662 -0.11751 0.770482 -0.583306 -0.378647 0.718596 7 5 3
1.31394 -0.118238 0.763581 -0.848468 0.396685 -0.350347 8 6 2
1.31419 -0.118241 0.763674 -0.828638 0.447757 -0.335966 7 6 2
1.31329 -0.118336 0.764856 -0.861183 0.362616 -0.356194 7 6 2
1.31279 -0.119582 0.756285 -0.825573 0.457511 -0.330321 3 4 2
0.590926 -0.123829 0.596889 -0.1927 0.480309 0.855669 11 8 6
0.590756 -0.124255 0.594258 0.0749297 -0.136736 0.98777 11 8 6
0.591093 -0.123811 0.596645 -0.154493 0.457205 0.87584 11 8 6
0.441526 -0.0841363 0.90393 -0.876172 0.429269 0.219203 2 2 1
0.392143 -0.0844406 0.886197 -0.181865 0.818689 0.544677 16 13 12
0.411144 -0.147573 0.373824 0.188063 0.759891 0.622252 8 3 1
0.409194 -0.147714 0.372195 0.296345 -0.235376 0.925623 7 3 0
0.40725 -0.14948 0.373117 0.326941 0.0257365 0.944694 20 11 4
0.404166 -0.148727 0.373702 -0.0867498 0.00700911 0.996205 80 61 38
0.397981 -0.146989 0.3763 -0.0814237 -0.675151 0.733172 72 53 30
0.395049 -0.148479 0.37736 -0.115823 -0.0218932 0.993029 53 38 20
1.32052 -0.113882 0.779688 -0.953003 0.180761 -0.243128 9 6 5
1.31781 -0.113727 0.774822 -0.843789 -0.162668 0.511428 5 6 3
1.31242 -0.113848 0.774101 -0.620064 0.0616071 0.782129 5 6 2
1.31556 -0.115871 0.75935 -0.852467 0.3919 -0.346 9 5 3
1.31668 -0.115974 0.758302 -0.87885 0.300428 -0.37063 9 5 4
1.31581 -0.11575 0.759768 -0.876219 0.305272 -0.372892 10 6 3
1.316 -0.115168 0.759758 -0.871707 0.322428 -0.369009 10 6 3
1.31745 -0.114892 0.758742 -0.894061 0.223774 -0.388047 10 6 3
1.3158 -0.115681 0.759776 -0.87459 0.311608 -0.371475 10 6 3
1.31581 -0.11575 0.759768 -0.876219 0.305272 -0.372892 10 6 3
0.592666 -0.121474 0.59601 -0.429457 0.0297194 0.902598 12 9 7
0.393374 -0.0838011 0.889006 -0.645167 0.705424 0.293489 13 13 10
0.392746 -0.0838579 0.886461 -0.628876 0.68993 0.358485 15 13 11
0.404812 -0.145016 0.382744 0.0284588 -0.638464 0.769125 7 3 0
0.402229 -0.145701 0.376439 -0.152857 -0.134251 0.979087 78 59 38
0.401555 -0.144005 0.378871 -0.0215992 -0.532874 0.845919 63 45 29
0.401555 -0.144005 0.378871 -0.0215992 -0.532874 0.845919 63 45 29
0.396962 -0.145242 0.38005 0.401535 0.348085 0.847117 75 57 33
1.31983 -0.111097 0.784151 -0.980278 0.19714 -0.0138182 5 6 3
1.31887 -0.111805 0.778608 -0.819915 -0.459059 0.342059 7 5 3
1.31644 -0.111225 0.777584 -0.648592 -0.347412 0.677224 7 6 3
1.31426 -0.110105 0.776637 -0.813752 -0.284106 0.507042 7 5 3
1.31073 -0.111467 0.768048 -0.892248 0.241103 -0.381789 9 6 4
1.31255 -0.111741 0.76668 -0.887503 0.268836 -0.374254 9 6 4
1.3129 -0.111178 0.766641 -0.883686 0.292067 -0.365781 9 6 4
1.31263 -0.111668 0.766635 -0.886684 0.26987 -0.375448 9 6 4
1.31976 -0.113787 0.753192 -0.863981 0.349351 -0.362617 5 3 2
1.31952 -0.113821 0.753156 -0.862957 0.35668 -0.35789 5 3 2
0.594818 -0.119352 0.595831 -0.0256264 0.71016 0.703574 12 9 7
0.594072 -0.119609 0.593517 0.0627124 -0.183865 0.980949 13 9 7
0.408794 -0.143803 0.374885 0.363527 0.040213 0.930715 8 3 1
0.406644 -0.144034 0.373456 0.342777 0.0611921 0.937422 27 15 8
0.40266 -0.141781 0.374298 0.39975 0.222605 0.889183 80 58 35
0.398416 -0.141583 0.377757 0.398589 0.35896 0.843964 78 55 32
1.31859 -0.106257 0.786515 -0.808399 -0.192004 0.556439 8 6 3
1.31738 -0.106826 0.781972 -0.990919 -0.100558 -0.0892656 9 6 2
1.3165 -0.107404 0.779237 -0.754611 -0.345802 0.557658 8 7 3
1.31293 -0.107858 0.774163 -0.995026 0.0985493 -0.0145056 9 6 4
1.31353 -0.108972 0.770772 -0.918686 0.121268 -0.375913 9 5 3
1.3134 -0.110859 0.766263 -0.889712 0.276192 -0.363497 9 6 4
1.32233 -0.110374 0.756846 -0.817304 0.477334 -0.322749 10 6 3
1.32179 -0.11018 0.756775 -0.838037 0.427471 -0.339061 10 6 3
1.32114 -0.109731 0.757441 -0.818473 0.479785 -0.316082 10 7 3
1.32255 -0.110397 0.75668 -0.814875 0.483121 -0.320271 10 6 3
1.32249 -0.110022 0.75558 -0.830147 0.446036 -0.334527 10 6 4
1.32249 -0.110022 0.75558 -0.830147 0.446036 -0.334527 10 6 4
1.32111 -0.111334 0.748931 -0.839543 0.424789 -0.338707 3 3 2
0.593625 -0.118308 0.592414 -0.014199 0.661788 0.749557 12 9 7
0.413208 -0.140728 0.370581 0.11496 0.818925 0.562269 4 3 1
0.410504 -0.141048 0.370374 0.132862 0.791792 0.596166 10 5 1
0.406704 -0.141015 0.371118 0.164778 0.78167 0.601532 71 53 32
1.31668 -0.10328 0.785129 -0.910048 0.0607713 -0.410024 6 5 3
1.31658 -0.103986 0.780967 -0.863946 0.238954 0.443282 5 7 2
1.31347 -0.105803 0.777514 -0.718319 0.166743 0.675437 6 7 2
1.31359 -0.105814 0.777092 -0.771137 0.0168001 0.636448 6 6 2
1.31565 -0.106119 0.766031 -0.901151 0.194841 -0.387251 6 5 2
1.32177 -0.109326 0.756982 -0.834367 0.441245 -0.330355 10 7 3
1.32142 -0.108582 0.757003 -0.896963 0.206235 -0.391056 9 7 3
1.32111 -0.109158 0.757683 -0.841305 0.416026 -0.345149 10 7 3
0.595051 -0.116305 0.592062 -0.0549433 0.155787 0.986261 10 9 7
0.410296 -0.138093 0.368294 0.411834 0.122841 0.902941 24 13 5
0.405264 -0.137732 0.368854 0.346871 0.518485 0.781572 78 56 33
1.29525 -0.100684 0.803028 -0.886036 0.262898 -0.381869 7 5 2
1.31604 -0.103487 0.780403 -0.466795 0.807204 0.361281 4 6 1
1.31588 -0.101508 0.777171 -0.483966 0.732732 0.478416 4 6 2
1.31662 -0.101399 0.776867 -0.468814 0.799038 0.3765 5 6 2
1.31442 -0.102792 0.771608 -0.891035 0.35661 -0.280866 9 7 5
1.31508 -0.102491 0.770663 -0.842049 0.445738 -0.303761 9 6 5
0.412061 -0.134039 0.367823 0.361354 -0.160164 0.91857 10 4 1
0.40785 -0.134009 0.369989 0.271552 -0.37785 0.885149 63 48 29
0.406646 -0.134146 0.370708 -0.550798 0.00615133 0.834616 73 55 33
0.403713 -0.134236 0.369339 -0.186396 -0.0311306 0.981981 75 53 32
1.29192 -0.0968343 0.81137 -0.908626 0.0487783 -0.414753 7 6 2
1.29139 -0.0966466 0.811277 -0.908612 0.0511032 -0.414503 7 6 2
1.29553 -0.0968972 0.806133 -0.908488 0.0616656 -0.413337 9 6 3
1.29905 -0.0985581 0.798198 -0.889174 0.247353 -0.384949 8 6 3
1.30167 -0.0967904 0.793537 -0.901807 0.164931 -0.399427 7 5 3
1.31729 -0.100039 0.781239 -0.921693 0.0530163 -0.384281 5 6 2
1.31629 -0.100232 0.781893 -0.912724 0.0328401 -0.407254 6 6 2
1.31612 -0.100164 0.781961 -0.913498 0.0181595 -0.406438 6 6 2
1.31494 -0.0995312 0.782374 -0.926485 -0.159396 -0.340907 6 5 2
0.403846 -0.133499 0.369004 -0.412615 -0.204501 0.887653 75 53 32
1.29018 -0.0935038 0.816189 -0.901336 0.169021 -0.39878 8 5 2
1.29773 -0.0951119 0.804245 -0.834038 0.434611 -0.339843 10 6 4
1.3157 -0.0977683 0.771595 -0.697251 0.175248 0.695075 9 5 3
0.442707 -0.0680194 0.946882 -0.650777 -0.422989 0.630531 5 3 1
0.406106 -0.130338 0.372029 0.268642 -0.386457 0.882316 69 52 33
0.402031 -0.130605 0.370938 -0.126885 -0.111367 0.985646 74 53 31
0.400548 -0.128011 0.370188 -0.802333 -0.378914 0.461178 60 44 26
1.30374 -0.0918692 0.804949 -0.796831 0.51614 -0.314102 6 5 2
1.30565 -0.0921083 0.803682 -0.792679 0.52414 -0.311347 6 5 2
1.3128 -0.0939837 0.790994 -0.879558 0.291745 -0.375849 7 6 3
1.30215 -0.0931305 0.798097 -0.849773 0.392862 -0.35149 8 6 3
1.313 -0.0933494 0.771006 -0.621171 -0.257529 0.740152 6 4 1
0.444838 -0.0659651 0.95092 -0.935793 0.277023 0.21806 2 2 0
0.443172 -0.0656754 0.948181 -0.556169 0.0341745 0.830366 5 3 1
0.443306 -0.0663354 0.946694 -0.620501 0.196824 0.759104 5 4 2
0.441981 -0.0668194 0.945382 -0.609351 0.356942 0.708014 5 3 1
0.44074 -0.0667453 0.943878 -0.467658 0.636854 0.612954 6 4 1
0.438576 -0.0667299 0.942931 -0.388823 0.469432 0.792748 5 4 1
0.438002 -0.0668819 0.941119 -0.832181 0.130715 0.538877 3 4 0
0.404356 -0.126677 0.374225 0.270079 -0.387004 0.881638 57 43 27
0.40101 -0.127843 0.369744 -0.709048 -0.52033 0.475929 62 46 27
1.31553 -0.0897264 0.786645 -0.94375 0.211351 -0.254297 5 5 2
1.3146 -0.0921143 0.77195 -0.773873 -0.00372306 0.63333 5 5 2
0.456654 -0.0624371 0.975755 -0.807568 0.558149 0.190536 4 2 1
0.456653 -0.0624367 0.975759 -0.806638 0.559416 0.190761 4 2 1
0.454472 -0.0617884 0.968617 -0.796845 0.570368 0.199295 4 3 0
0.444012 -0.0646476 0.946642 -0.674273 0.379219 0.633679 6 3 1
0.438641 -0.0652535 0.941389 -0.597314 0.566992 0.567218 4 4 1
0.435781 -0.0661861 0.936681 -0.537301 0.398469 0.743324 5 3 1
0.406975 -0.123035 0.375063 0.270057 -0.386945 0.88167 2 1 0
0.402623 -0.123038 0.376369 -0.355502 -0.573828 0.737794 5 2 2
0.401409 -0.124149 0.375768 0.0434258 -0.606915 0.793579 10 5 1
0.401697 -0.124534 0.372585 -0.576064 -0.448162 0.683594 12 5 1
0.397789 -0.122441 0.371989 -0.792982 -0.406631 0.453685 2 2 1
0.398073 -0.124176 0.371945 -0.571565 -0.64637 0.50549 10 6 2
1.31726 -0.0870415 0.782224 -0.911668 0.199672 -0.359156 8 4 3
1.31791 -0.0869543 0.78139 -0.911453 0.0517504 -0.408136 8 5 3
1.31791 -0.0869543 0.78139 -0.911453 0.0517504 -0.408136 8 5 3
1.31799 -0.08701 0.781505 -0.911519 0.0814229 -0.403118 8 5 3
1.31791 -0.0869543 0.78139 -0.911453 0.0517504 -0.408136 8 5 3
1.31799 -0.08701 0.781505 -0.911519 0.0814229 -0.403118 8 5 3
1.31799 -0.08701 0.781505 -0.911519 0.0814229 -0.403118 8 5 3
1.31791 -0.0869543 0.78139 -0.911453 0.0517504 -0.408136 8 5 3
1.31799 -0.08701 0.781505 -0.911519 0.0814229 -0.403118 8 5 3
1.32027 -0.0872744 0.776742 -0.994273 0.0946126 -0.0497035 9 5 3
1.31808 -0.0889212 0.774731 -0.984454 0.103207 0.14212 7 4 2
0.457898 -0.0612907 0.970973 -0.669265 0.639285 0.378681 5 2 0
0.456197 -0.0615425 0.969765 -0.669239 0.639458 0.378433 3 2 0
0.454508 -0.0613937 0.967083 -0.78778 0.581665 0.202654 4 2 0
0.452146 -0.0608474 0.965723 -0.830533 0.488109 0.268262 5 4 1
0.452684 -0.0609961 0.964813 -0.909024 0.361347 0.207614 5 4 1
0.452146 -0.0608474 0.965723 -0.830533 0.488109 0.268262 5 4 1
0.4506 -0.0620549 0.961029 -0.622025 0.742321 0.249088 5 4 1
0.444691 -0.0637555 0.945453 -0.527528 -0.449692 0.720758 5 3 1
0.442627 -0.0637586 0.944257 -0.446912 -0.422981 0.788262 5 5 2
0.440332 -0.0637996 0.94079 -0.31437 0.810822 0.493699 6 4 1
0.436823 -0.0646192 0.9377 -0.76457 0.312313 0.56382 4 5 1
0.436669 -0.0647195 0.936858 -0.539499 0.540784 0.645363 4 4 1
0.439543 -0.0656385 0.920093 -0.252289 0.801346 0.542397 7 5 1
0.438087 -0.0660301 0.919751 -0.450088 0.594797 0.666061 6 5 1
0.404924 -0.119139 0.3797 -0.101176 -0.628641 0.771086 2 1 0
0.402421 -0.119512 0.379973 -0.569324 -0.643282 0.511916 2 1 0
0.399056 -0.121125 0.372326 -0.778278 0.514552 0.359887 3 1 0
0.39553 -0.122277 0.363641 -0.606668 -0.619263 0.498464 2 1 0
0.395696 -0.121526 0.367082 -0.48469 -0.702543 0.521066 3 1 0
0.395696 -0.121526 0.367082 -0.48469 -0.702543 0.521066 3 1 0
0.391268 -0.121478 0.361297 -0.48451 -0.701603 0.522498 2 2 0
1.32084 -0.0845079 0.776459 -0.85573 0.458176 -0.240418 7 5 3
1.32076 -0.0854638 0.773053 -0.877678 0.422194 0.226791 9 6 3
0.478132 -0.0581133 0.986454 -0.306538 0.69545 0.64991 4 3 2
0.476089 -0.0580599 0.986439 -0.322252 0.781917 0.533628 6 3 1
0.456262 -0.0600265 0.968375 -0.658443 0.660505 0.360812 7 3 1
0.45446 -0.0604627 0.963634 -0.79328 0.168738 0.585008 5 4 1
0.453337 -0.0593621 0.962961 -0.740906 0.0133886 0.671476 8 4 1
0.452199 -0.0602377 0.961968 -0.619182 0.687613 0.379212 5 4 1
0.452117 -0.0603411 0.962422 -0.764447 0.570366 0.300505 5 4 1
0.452077 -0.0599886 0.960543 -0.426631 0.721138 0.545845 7 3 1
0.443381 -0.0613785 0.944318 -0.866633 0.157433 0.473457 7 4 2
0.443393 -0.0618854 0.945568 -0.654276 -0.360098 0.665021 7 3 1
0.442168 -0.0622537 0.942269 -0.86027 0.344928 0.375446 4 4 1
0.44139 -0.0622852 0.940398 -0.556398 0.634978 0.535933 5 3 1
0.43955 -0.0620659 0.938743 -0.744566 0.593207 0.30615 5 4 1
0.439643 -0.0620178 0.938684 -0.74169 0.54465 0.391474 5 4 1
0.438874 -0.0622245 0.937394 -0.209718 0.175658 0.961854 5 5 1
0.437453 -0.0623666 0.936312 -0.196022 0.475921 0.857365 5 5 1
0.441663 -0.0646908 0.918775 -0.221 0.657737 0.720098 7 6 1
0.392415 -0.0685091 0.878428 -0.618703 0.526494 0.583104 16 15 13
0.391015 -0.0686696 0.876632 -0.729927 0.0606718 0.680827 17 15 13
0.390857 -0.0678262 0.875392 -0.866372 -0.104728 0.488295 16 15 13
0.390877 -0.0688312 0.872893 -0.861181 -0.159816 0.482521 10 12 8
0.389009 -0.0681215 0.871153 -0.666018 0.501898 0.551832 13 13 10
0.388049 -0.0679229 0.871579 -0.364264 -0.0701109 0.928653 18 17 14
0.3869 -0.0693496 0.869659 -0.246797 -0.568314 0.784927 16 15 13
0.398731 -0.118821 0.374993 -0.684198 -0.532608 0.4982 4 1 0
0.399 -0.118388 0.374354 -0.746758 -0.476967 0.463525 4 1 1
0.399 -0.118387 0.374356 -0.746782 -0.477051 0.4634 4 1 1
0.395268 -0.118326 0.368044 -0.608186 -0.611104 0.506618 1 1 0
0.391048 -0.117849 0.365893 -0.416517 -0.556918 0.71858 2 1 1
1.3222 -0.0812606 0.779603 -0.952396 0.131773 -0.274916 6 6 3
1.32138 -0.0839739 0.776988 -0.895064 0.401559 -0.193934 6 5 2
1.32244 -0.0819662 0.773054 -0.912928 0.378766 -0.151983 7 5 2
0.479906 -0.0566254 0.985781 -0.287072 0.582003 0.76083 4 3 0
0.477578 -0.0565314 0.985847 -0.592691 0.469335 0.654555 6 4 0
0.476514 -0.0567029 0.984544 -0.277399 0.497388 0.821982 29 24 16
0.474983 -0.0567849 0.983205 -0.272977 0.462793 0.84339 90 81 61
0.457534 -0.0575578 0.965343 -0.285136 -0.182507 0.940951 104 94 62
0.455783 -0.0577476 0.964794 -0.690346 0.526398 0.496314 84 76 51
0.454582 -0.0585621 0.963809 -0.782911 0.0753991 0.617548 24 19 10
0.452496 -0.0584907 0.961174 -0.81267 -0.0145924 0.582542 17 9 3
0.451182 -0.059396 0.960794 -0.793463 0.0641624 0.605227 7 3 1
0.450564 -0.0584476 0.958516 -0.424688 -0.698591 0.575857 10 5 2
0.447962 -0.0584684 0.957497 -0.418885 -0.699849 0.578573 8 4 2
0.444945 -0.0583796 0.957746 -0.414286 -0.693468 0.589465 12 10 5
0.439219 -0.0601387 0.9376 -0.334045 0.274805 0.901607 6 4 1
0.437993 -0.0602383 0.936431 -0.272402 0.303149 0.91318 6 6 1
0.44243 -0.0631436 0.916547 -0.642828 0.633125 0.43119 7 7 2
0.393919 -0.0666943 0.878569 -0.565825 0.437384 0.698955 17 15 13
0.391261 -0.0667145 0.877245 -0.738653 0.0534201 0.671966 17 15 13
0.390912 -0.0656321 0.875441 -0.846059 0.166292 0.506489 18 16 13
0.390309 -0.066682 0.872912 -0.855863 -0.210929 0.472237 13 13 9
0.39071 -0.0668329 0.872922 -0.867236 -0.00114723 0.497896 18 17 14
0.390963 -0.114053 0.368738 0.153303 -0.381775 0.911453 4 2 2
1.32122 -0.0792749 0.778497 -0.940985 0.338443 -0.0019049 7 6 3
0.478848 -0.054754 0.985877 -0.518237 0.374324 0.768968 5 3 1
0.477621 -0.0548196 0.984517 -0.463002 0.393327 0.794307 18 12 8
0.475701 -0.054863 0.983262 -0.457032 0.393157 0.797841 134 123 89
0.473608 -0.0548575 0.982116 -0.279327 0.122148 0.952395 132 114 67
0.457297 -0.0560987 0.964175 -0.75821 0.616487 0.212277 110 94 54
0.453656 -0.057379 0.96298 -0.789563 0.310394 0.529382 91 82 55
0.451386 -0.0578192 0.960582 -0.724232 -0.0393675 0.688431 36 27 14
0.447651 -0.0572393 0.960078 -0.274599 -0.242474 0.930485 37 31 19
0.444678 -0.05639 0.960932 -0.304659 -0.38403 0.87161 79 73 49
0.392476 -0.0649927 0.875822 -0.281509 0.687076 0.669835 17 16 14
0.397918 -0.114257 0.366348 -0.119946 0.0252074 0.99246 3 2 2
0.394765 -0.114158 0.367038 -0.11015 0.0750359 0.991078 1 2 1
1.32139 -0.0771096 0.775219 -0.90562 0.319392 -0.279002 5 7 2
0.479674 -0.0533123 0.98615 -0.54643 0.478626 0.687264 7 4 1
0.478638 -0.052931 0.98451 -0.592127 0.531266 0.605922 22 16 10
0.477086 -0.0533107 0.983237 -0.598921 0.491886 0.631935 107 98 71
0.455518 -0.0549216 0.963492 -0.766926 0.604147 0.216406 110 93 52
0.454062 -0.055792 0.960862 -0.685741 0.60158 0.409707 93 76 39
0.453314 -0.0561319 0.961017 -0.763985 0.375818 0.524488 98 83 47
0.451992 -0.0559573 0.960834 -0.764695 0.286949 0.576976 103 89 53
0.45084 -0.0549409 0.961763 -0.793642 -0.510277 0.331285 103 86 47
0.391544 -0.0631285 0.874805 -0.225986 0.314968 0.921806 18 17 14
0.399506 -0.111296 0.367839 -0.490428 -0.341992 0.801575 3 2 1
0.396327 -0.111307 0.367452 -0.0806497 -0.218381 0.972525 1 1 1
0.398111 -0.10878 0.366207 -0.119538 0.00354017 0.992823 2 2 1
0.393254 -0.111272 0.367499 -0.106393 0.090537 0.990194 1 2 1
0.394712 -0.108581 0.36812 0.0413639 -0.540399 0.840391 1 2 1
0.391623 -0.108531 0.368335 0.0188984 -0.68873 0.724771 1 2 1
0.389138 -0.110911 0.371962 -0.0914629 -0.0310741 0.995324 2 2 2
1.32417 -0.0737191 0.772465 -0.518569 0.851176 0.0811564 7 6 2
0.481016 -0.0519156 0.986461 -0.583727 0.293405 0.757084 8 4 1
0.480013 -0.0517713 0.984642 -0.564187 0.504669 0.653454 11 5 2
0.47833 -0.0518273 0.983263 -0.607345 0.549194 0.574037 108 100 74
0.477036 -0.0517335 0.98181 -0.555191 0.528969 0.641837 144 133 90
0.455718 -0.0532318 0.961744 -0.239368 0.389026 0.889585 111 91 47
0.399595 -0.106101 0.36669 0.000760138 -0.502866 0.864364 2 1 0
0.391082 -0.10682 0.371401 0.0692433 -0.653991 0.753327 1 1 1
0.390875 -0.106851 0.371531 0.0798886 -0.64493 0.760055 1 1 1
1.32876 -0.0725775 0.774009 -0.4902 0.747915 0.44758 6 5 2
0.482151 -0.0503322 0.986585 -0.483884 0.598476 0.6385 5 4 1
0.481917 -0.050253 0.984766 -0.506151 0.54814 0.665848 7 5 2
0.479888 -0.050238 0.983238 -0.603232 0.541886 0.58521 66 57 46
0.478447 -0.0501918 0.981823 -0.538079 0.488578 0.68685 138 128 88
0.396121 -0.104316 0.369445 0.00742185 -0.495966 0.86831 3 2 0
0.394673 -0.105257 0.370571 0.0552273 -0.592342 0.803792 2 2 0
1.33448 -0.0680835 0.77169 -0.538295 0.284021 0.793455 7 5 3
1.32879 -0.06903 0.768055 -0.541745 0.271967 0.795328 6 5 2
0.820756 -0.0409431 1.0916 -0.903424 -0.220059 0.367966 30 26 25
0.482765 -0.0487324 0.984918 -0.589937 0.54434 0.59638 7 5 1
0.481554 -0.0487952 0.98333 -0.594114 0.602961 0.532416 31 27 18
0.480118 -0.0486095 0.98177 -0.503133 0.563731 0.65503 112 105 75
0.479411 -0.0486165 0.980174 -0.502515 0.567417 0.652316 134 121 77
0.820147 -0.0384478 1.0916 -0.892198 -0.248837 0.376912 11 8 7
0.485088 -0.0473111 0.984469 -0.282068 0.183654 0.941652 9 7 2
0.483379 -0.0473463 0.983251 -0.42844 0.2798 0.859157 15 12 5
0.481228 -0.0470475 0.981912 -0.481068 0.298467 0.824313 123 112 81
0.48256 -0.0459455 0.982302 -0.784279 0.159338 0.599598 83 76 54
0.819581 -0.0351126 1.08849 -0.93765 -0.0484294 -0.344189 14 13 13
0.48631 -0.044477 0.984325 -0.314549 0.0726399 0.946458 9 6 0
0.484184 -0.0452579 0.983401 -0.572924 0.0851564 0.815172 13 9 2
0.483124 -0.0440259 0.982297 -0.609368 0.171642 0.774086 61 51 32
0.480979 -0.0445846 0.981344 -0.402325 0.107941 0.909111 130 110 65
0.43031 -0.0526198 0.88833 -0.779359 -0.23413 0.581191 223 189 97
0.818116 -0.0337228 1.09068 -0.991336 -0.0252172 -0.128907 6 7 4
0.819716 -0.0350727 1.08849 -0.936652 -0.055412 -0.345849 14 13 12
0.484722 -0.0432099 0.983346 -0.731262 0.358752 0.580132 14 10 2
0.484966 -0.0427192 0.984905 -0.778238 0.35571 0.517509 9 6 1
0.481519 -0.0426653 0.981344 -0.345933 0.24533 0.905618 128 112 70
0.430665 -0.0505214 0.888462 -0.77511 -0.0999444 0.623872 222 180 83
0.81636 -0.0324301 1.09285 -0.977091 -0.101044 -0.187308 4 5 2
0.48691 -0.04185 0.984821 -0.321523 0.134434 0.93731 9 5 1
0.485994 -0.0410997 0.984863 -0.628036 0.281986 0.725296 9 5 1
0.485557 -0.041528 0.983343 -0.715256 0.385138 0.583162 11 6 2
0.483991 -0.0419354 0.982095 -0.41976 0.323674 0.847961 61 53 30
0.481782 -0.0419377 0.980975 -0.381819 0.283779 0.879593 132 115 73
0.816644 -0.0299097 1.09284 -0.996914 0.0414453 -0.0666631 4 3 2
0.486565 -0.0393113 0.984821 -0.424207 0.224376 0.877328 11 5 3
0.486225 -0.0398611 0.983396 -0.683479 0.254789 0.684061 12 7 3
0.486336 -0.0393162 0.98487 -0.555933 0.265481 0.787692 11 5 3
0.484937 -0.0402377 0.982077 -0.440791 0.256289 0.860244 66 58 38
0.482926 -0.0398681 0.980972 -0.384067 0.222311 0.896142 132 117 71
0.818211 -0.0287424 1.09068 -0.997902 0.0629153 -0.0152695 6 6 3
0.81951 -0.0299925 1.08852 -0.933196 0.0756812 -0.351307 24 24 21
0.819662 -0.0300414 1.0885 -0.934851 0.0530585 -0.351052 23 24 21
0.485552 -0.0385969 0.982202 -0.818408 0.216462 0.532308 30 23 10
0.484074 -0.0391197 0.9812 -0.464285 0.196533 0.863605 121 109 70
0.430817 -0.044901 0.886737 -0.77561 -0.0488394 0.62932 193 151 58
0.820339 -0.0278956 1.09212 -0.776634 0.405739 0.481888 5 4 3
0.819849 -0.0275732 1.08851 -0.957858 0.115817 -0.262859 27 27 25
0.820719 -0.0274012 1.08647 -0.645148 0.700567 0.304942 37 36 37
0.487231 -0.0365119 0.984521 -0.754159 0.364087 0.546521 11 6 3
0.487076 -0.0372341 0.985392 -0.791605 0.267665 0.549287 11 6 4
0.486033 -0.0367292 0.982232 -0.840071 0.36676 0.399709 34 25 13
0.486836 -0.0370494 0.982998 -0.750979 0.321911 0.576545 13 7 2
0.484866 -0.0374247 0.980968 -0.698377 0.285546 0.656302 115 104 72
0.483381 -0.0378554 0.98017 -0.653258 0.245232 0.71632 134 119 71
0.482425 -0.0365523 0.97976 -0.692371 0.166654 0.702032 140 119 69
0.434166 -0.0428585 0.894006 -0.780083 -0.0597966 0.622812 205 168 68
0.819167 -0.0263755 1.09093 -0.85082 0.458844 0.25606 9 9 6
0.490111 -0.0347236 0.983094 -0.30722 0.0376808 0.950892 11 7 1
0.488184 -0.0347589 0.981932 -0.353961 -0.0304252 0.934765 17 9 5
0.487457 -0.0360341 0.983929 -0.715097 0.333758 0.6142 12 5 2
0.485801 -0.0354063 0.980464 -0.767186 0.337295 0.54558 121 107 75
0.484179 -0.0361614 0.979921 -0.69043 0.280352 0.666865 137 120 72
0.819207 -0.0242028 1.09301 -0.959412 -0.0277454 -0.280639 5 4 3
0.820731 -0.0236291 1.08957 -0.800491 -0.0281106 0.598686 27 24 22
0.820781 -0.0248037 1.08859 -0.975417 0.162532 0.148809 35 32 30
0.820099 -0.0220237 1.09146 -0.979114 0.0769013 -0.188209 9 7 4
0.82955 -0.0229474 1.07725 -0.642063 0.766312 -0.0228326 33 32 34
0.431053 -0.0390064 0.889501 -0.618276 0.689431 0.377386 185 150 55
0.818409 -0.0207613 1.09387 -0.948625 0.0698663 -0.308593 5 4 1
0.825238 -0.0207596 1.08494 -0.935147 -0.0803892 -0.345018 39 38 37
0.823093 -0.0219959 1.08707 -0.927129 0.138946 -0.348031 41 38 38
0.831178 -0.0213528 1.07838 -0.896092 0.312865 -0.314857 41 38 38
0.831086 -0.021797 1.07396 -0.641852 0.766489 -0.0228298 32 31 33
0.431799 -0.0368039 0.897315 -0.689838 0.517372 0.506409 171 139 56
0.818526 -0.0190324 1.096 -0.827891 0.21066 0.519825 4 3 2
0.823304 -0.0195122 1.08706 -0.954686 -0.0305695 -0.29604 41 39 39
0.831818 -0.0204958 1.0778 -0.692412 0.720226 -0.0429019 40 38 39
0.831536 -0.0195528 1.07784 -0.998992 0.0322328 -0.0312334 38 37 38
0.830737 -0.0209153 1.07427 -0.990215 -0.00472999 -0.139468 32 31 33
0.431423 -0.0346023 0.897304 -0.790686 -0.144435 0.594941 202 175 79
0.818689 -0.0181518 1.09385 -0.994444 -0.026204 -0.101949 4 4 2
0.821142 -0.0182589 1.0891 -0.971091 0.153584 0.182739 37 36 33
0.820804 -0.0181442 1.08934 -0.994123 -0.00221293 -0.108236 36 35 32
0.43232 -0.0302656 0.960366 -0.655321 0.266423 0.706804 80 62 25
0.431692 -0.0301947 0.960522 -0.475851 0.249177 0.843491 81 63 26
0.427402 -0.033327 0.882662 -0.788139 0.543924 0.288069 137 107 35
0.818373 -0.0165787 1.096 -0.932582 -0.0821702 0.351481 5 4 3
0.818297 -0.0156744 1.09385 -0.942287 -0.186388 -0.278128 7 3 2
0.82044 -0.0168603 1.09153 -0.990797 0.0267487 -0.132685 16 14 11
0.820934 -0.015596 1.08934 -0.989865 -0.0452193 0.134622 43 41 37
0.431039 -0.0286597 0.959097 -0.555116 0.652501 0.515837 77 61 23
0.428432 -0.0316471 0.894634 -0.773357 -0.308201 0.554014 178 152 66
0.819129 -0.0139222 1.09593 -0.806403 -0.273775 0.524178 3 4 3
0.831387 -0.0146347 1.07799 -0.974786 -0.0873972 0.205313 42 41 39
0.830103 -0.0158125 1.07669 -0.969716 -0.0363625 0.241513 34 33 33
0.433935 -0.0260231 0.959491 -0.57248 0.0651587 0.817326 96 74 35
0.432395 -0.0267925 0.958602 -0.445652 0.766913 0.461778 90 71 33
0.817779 -0.0130257 1.09633 -0.853447 -0.368595 0.368465 3 4 3
