ply
format ascii 1.0
element vertex 726
property float x
property float y
property float z
property float nx
property float ny
property float nz
property uchar diffuse_red
property uchar diffuse_green
property uchar diffuse_blue
end_header
0.502287 0.105174 0.986166 0.385008 -0.295657 0.874275 251 217 113
0.500022 0.104935 0.98667 0.134992 -0.44336 0.88612 250 210 103
0.49799 0.104948 0.987162 0.333322 -0.310979 0.89005 249 205 99
0.493239 0.104671 0.98943 0.493964 -0.43904 0.750496 253 215 111
0.487478 0.104875 0.990576 0.26988 -0.429421 0.861837 247 202 98
0.485775 0.105013 0.99032 0.0415823 -0.418981 0.907042 248 202 96
0.483345 0.105375 0.991555 0.0929887 -0.3334 0.938189 249 200 95
0.481525 0.105403 0.991584 0.134181 -0.368209 0.920009 248 201 96
0.479588 0.105617 0.991519 -0.429358 -0.259807 0.864957 249 202 97
0.477494 0.105523 0.992191 0.244234 -0.148566 0.958268 247 197 89
0.476086 0.105599 0.991303 -0.0681569 0.0166841 0.997535 248 199 91
0.470702 0.10532 0.992642 -0.0191874 -0.411028 0.911421 244 200 99
0.468895 0.105331 0.99267 -0.00598055 -0.315012 0.949069 248 205 106
0.467046 0.105324 0.992759 0.0832878 -0.253377 0.963776 243 197 100
0.465144 0.105301 0.993047 0.191582 -0.177386 0.965314 244 197 100
0.463242 0.105291 0.993476 0.0681385 0.0790578 0.994539 242 195 97
0.46047 0.10691 0.993568 -0.441852 -0.264646 0.857164 248 206 109
0.457994 0.106358 0.99257 -0.173504 -0.207907 0.962638 234 190 96
0.456009 0.106306 0.99241 0.6046 -0.420756 0.676331 242 197 103
0.452876 0.106269 0.991511 -0.15612 -0.153256 0.975776 231 183 93
0.452902 0.106871 0.991764 -0.113828 -0.208334 0.971411 235 188 96
0.449357 0.106771 0.991666 -0.240217 0.00668829 0.970696 245 211 119
0.446162 0.106335 0.996051 0.136456 -0.592992 0.793562 237 202 115
0.438352 0.107192 0.997589 0.212087 0.0497454 0.975984 162 137 86
0.436726 0.107097 0.998796 0.0496524 0.0230309 0.998501 138 116 70
0.436838 0.107177 0.998441 0.0437284 0.0297065 0.998602 138 116 70
0.436936 0.106863 0.999323 0.212939 0.0100024 0.977014 140 118 72
0.434244 0.10664 1.00119 -0.0662937 0.566586 0.821331 139 118 74
0.433386 0.105851 1.00108 0.335933 0.557202 0.759391 135 113 69
0.27766 0.15154 0.811738 0.397549 -0.684708 0.610844 37 33 27
0.274189 0.152242 0.812863 0.273201 -0.690303 0.669958 36 33 27
0.273086 0.150689 0.812561 0.265906 -0.699801 0.663003 33 32 26
0.269007 0.151579 0.813659 0.271247 -0.501275 0.821674 36 33 27
0.266503 0.151958 0.816808 0.655027 0.425864 0.624163 40 34 29
0.263524 0.150887 0.818677 0.839909 -0.127 0.527658 44 40 32
0.26206 0.150047 0.818611 0.296207 -0.61272 0.732691 42 39 30
0.229227 0.146887 0.849045 -0.157817 0.112864 0.980997 61 59 45
0.232661 0.146553 0.851335 -0.178778 0.156949 0.971291 63 59 46
0.22388 0.147355 0.847261 0.407605 0.203048 0.890297 68 60 47
0.221546 0.146747 0.848432 0.823046 0.164446 0.543648 64 58 46
0.221736 0.147352 0.848089 0.340019 -0.263301 0.902807 63 59 47
0.218714 0.147768 0.84896 0.536702 -0.642276 0.547204 65 58 48
0.208837 0.146606 0.850125 0.531576 0.268495 0.803329 62 56 45
0.206616 0.146308 0.852944 0.460212 0.352935 0.814643 62 57 45
0.20434 0.146523 0.853103 -0.13094 0.414331 0.900658 63 58 44
0.200099 0.146241 0.853941 -0.0283811 0.0141006 0.999498 50 41 32
0.200552 0.14757 0.852308 0.636517 -0.250907 0.729309 64 54 46
0.201069 0.147954 0.853802 0.864782 -0.062238 0.498275 65 56 47
0.199126 0.147931 0.853864 0.701007 0.0513819 0.711301 63 56 46
0.198195 0.145983 0.855222 0.639408 -0.217836 0.737364 60 57 45
0.197123 0.14765 0.856458 0.361131 -0.182008 0.914581 60 56 44
0.183703 0.141294 0.890772 0.724054 -0.276453 0.631918 59 55 44
0.546845 0.160297 0.70663 -0.400735 -0.628225 0.666892 90 85 70
0.497726 0.180539 0.623393 -0.556262 -0.00333051 0.831 96 90 74
0.497111 0.180392 0.624467 -0.0961804 -0.283557 0.95412 98 91 75
0.494732 0.181133 0.621321 -0.0550388 0.0163664 0.99835 50 43 31
0.516951 0.107932 0.980748 0.507048 0.0104646 0.861854 249 210 111
0.514833 0.107878 0.981893 0.374747 -0.0749276 0.924095 249 208 110
0.512967 0.107727 0.98312 0.440275 -0.133478 0.887886 251 213 116
0.510023 0.107029 0.984997 0.589935 0.048096 0.806017 250 211 113
0.510023 0.107029 0.984997 0.589935 0.048096 0.806017 250 211 113
0.507497 0.106916 0.985134 0.351414 -0.328355 0.87675 253 217 119
0.505472 0.106943 0.986221 0.343295 -0.455084 0.821612 253 219 118
0.503298 0.106871 0.987131 0.393005 -0.193597 0.898926 251 219 115
0.501495 0.106974 0.987075 0.277527 -0.378914 0.882838 252 219 114
0.499169 0.106684 0.98752 0.249683 -0.335689 0.908279 249 204 98
0.496858 0.106915 0.988484 0.376034 -0.246399 0.893245 251 209 102
0.496998 0.106676 0.988346 0.411772 -0.133561 0.901446 250 207 101
0.494629 0.106902 0.989503 0.49586 -0.263111 0.827584 250 211 104
0.492302 0.107216 0.990215 -0.1115 -0.38116 0.917761 253 216 110
0.490207 0.106411 0.990674 0.259527 -0.322281 0.910374 252 209 103
0.488382 0.106586 0.990758 0.439478 -0.0843127 0.894288 249 207 101
0.486477 0.106668 0.991042 0.264683 -0.0684226 0.961905 248 201 96
0.484387 0.106996 0.991759 0.142922 -0.25688 0.955817 247 198 91
0.481038 0.10719 0.992284 0.234458 -0.326502 0.915656 248 200 91
0.478517 0.107018 0.992744 0.0597864 -0.428855 0.901393 245 195 86
0.476458 0.107075 0.992956 0.00791213 -0.428487 0.903513 244 195 88
0.476621 0.106913 0.992981 -0.00469074 -0.377789 0.92588 244 195 87
0.47014 0.106896 0.993252 -0.0443086 -0.345621 0.937327 247 203 103
0.46797 0.106846 0.993196 0.0250852 -0.280323 0.959578 243 198 98
0.466098 0.106828 0.993348 0.0788485 -0.262903 0.961595 248 203 105
0.464387 0.106879 0.993208 -0.0797056 -0.316363 0.945284 249 206 109
0.462356 0.106946 0.993237 0.063294 -0.325684 0.943358 244 198 101
0.461607 0.108429 0.993566 0.116932 -0.292146 0.949198 245 202 104
0.459242 0.107887 0.993235 -0.181418 -0.346954 0.920169 243 200 105
0.45713 0.10796 0.992924 -0.0008986 -0.136874 0.990588 249 211 117
0.454165 0.108029 0.992354 0.262292 -0.631517 0.72965 244 197 100
0.454033 0.108582 0.992466 0.124353 -0.535628 0.835248 243 196 100
0.451885 0.108079 0.991802 -0.137038 -0.237702 0.961623 235 192 100
0.451933 0.10872 0.991984 -0.120139 -0.145029 0.982107 237 194 101
0.449919 0.108633 0.991787 0.0300946 -0.0801859 0.996325 240 202 111
0.451825 0.108632 0.992013 -0.125736 -0.165641 0.978138 237 194 101
0.450295 0.108515 0.992362 -0.20953 -0.20047 0.957031 240 201 110
0.44861 0.108744 0.99199 -0.0440712 -0.123468 0.991369 236 198 108
0.438953 0.108964 0.996854 0.559137 -0.0363289 0.828279 199 173 108
0.437533 0.10881 0.997907 0.216409 0.00271219 0.976299 147 123 74
0.274467 0.153628 0.81531 0.26513 -0.633163 0.727194 37 34 28
0.273133 0.15426 0.814565 0.265436 -0.695911 0.667272 37 34 28
0.269011 0.153621 0.814905 0.271071 -0.501965 0.821311 39 35 29
0.269743 0.153122 0.813563 0.282579 -0.37004 0.884997 36 34 27
0.270697 0.152866 0.814727 0.264354 -0.67871 0.685179 36 34 28
0.267179 0.153996 0.816393 0.782068 0.203656 0.588977 58 53 43
0.266295 0.153566 0.818927 0.274543 -0.494371 0.824757 65 58 48
0.265215 0.152304 0.818444 0.676784 0.398387 0.619073 53 47 39
0.264043 0.152751 0.820642 0.275099 -0.519217 0.809156 66 62 51
0.26206 0.151965 0.820191 0.272122 -0.630802 0.726663 67 62 51
0.260806 0.153782 0.819446 0.816767 0.102933 0.567712 73 66 54
0.225593 0.149215 0.848186 -0.187064 -0.734297 0.652546 65 60 48
0.222992 0.149238 0.84832 0.0925052 -0.233736 0.96789 65 60 48
0.220608 0.1496 0.84963 0.627859 0.267763 0.730819 66 61 49
0.215281 0.149018 0.848748 -0.310094 -0.449317 0.837828 66 58 47
0.208115 0.150247 0.851575 0.460213 0.35316 0.814544 67 60 47
0.205048 0.148863 0.850528 0.422569 0.19332 0.885473 66 59 49
0.203957 0.149602 0.849985 0.440706 0.277957 0.853533 67 59 50
0.20163 0.149617 0.851164 0.430605 0.225952 0.873799 66 58 48
0.199906 0.149168 0.854114 0.583522 -0.178188 0.792307 65 58 48
0.198967 0.14828 0.855116 0.00157678 -0.036238 0.999342 63 57 46
0.196101 0.147816 0.857495 0.745734 -0.301943 0.593895 61 56 45
0.185968 0.143449 0.890281 0.738985 -0.26452 0.619621 62 58 46
0.504173 0.108598 0.987595 0.394811 -0.183445 0.900262 252 219 116
0.502194 0.108625 0.987976 0.252252 -0.128924 0.959035 250 218 115
0.500053 0.108574 0.987701 0.00603616 -0.0776689 0.996961 250 210 105
0.498054 0.108639 0.988103 0.339722 -0.0274782 0.940125 252 211 104
0.495751 0.108962 0.989194 0.394023 -0.0556177 0.917416 251 209 101
0.495751 0.108962 0.989194 0.394023 -0.0556177 0.917416 251 209 101
0.493375 0.108883 0.990585 0.206303 -0.296043 0.932629 252 212 104
0.48899 0.108276 0.991836 0.446134 -0.0481336 0.893671 253 214 109
0.48724 0.108428 0.99173 0.34012 -0.0973579 0.935329 249 205 102
0.483658 0.108601 0.991745 -0.285839 -0.0108848 0.958216 247 198 92
0.479555 0.109046 0.993469 -0.0702339 -0.439012 0.895732 248 199 92
0.479339 0.108786 0.993874 -0.226478 -0.310975 0.92304 248 199 92
0.477251 0.108754 0.993807 -0.140567 -0.0932143 0.985673 242 192 86
0.475152 0.108724 0.993685 -0.225982 -0.00627705 0.974111 246 198 95
0.47105 0.108619 0.994036 -0.127188 -0.288837 0.948892 245 198 98
0.468972 0.108614 0.993726 -0.155418 -0.277188 0.948162 244 200 99
0.465242 0.108357 0.993789 0.141226 -0.200571 0.969446 249 212 112
0.463511 0.108415 0.99373 -0.0442209 -0.266095 0.962932 248 205 107
0.460485 0.109453 0.993915 -0.227197 -0.240645 0.943648 249 210 113
0.458493 0.109368 0.993686 -0.291092 -0.27728 0.915632 244 205 111
0.456283 0.109509 0.993294 0.108364 -0.1412 0.984033 252 221 123
0.454132 0.109597 0.992944 0.0108022 -0.329615 0.944054 246 201 104
0.450808 0.110636 0.992241 -0.192986 -0.15885 0.968258 242 202 111
0.45127 0.110136 0.992466 -0.298894 -0.240548 0.923471 240 199 107
0.449189 0.110199 0.992258 -0.221633 -0.180889 0.958206 241 201 112
0.28146 0.155352 0.811437 0.304184 -0.364807 0.879993 37 35 28
0.280672 0.155088 0.8124 0.275089 -0.391367 0.878156 37 35 28
0.279173 0.154972 0.813701 0.429484 -0.468181 0.772237 37 35 28
0.27831 0.155057 0.815659 0.480982 -0.565625 0.66987 38 35 30
0.278777 0.154553 0.816116 0.375505 -0.475632 0.795468 38 35 29
0.277545 0.154961 0.817542 0.407172 -0.476413 0.779257 37 34 29
0.276395 0.155005 0.815262 0.357192 -0.779727 0.514237 37 35 28
0.270959 0.154774 0.815866 0.264239 -0.678134 0.685793 40 37 29
0.267273 0.154762 0.814207 0.493809 -0.73364 0.466825 62 57 47
0.268294 0.15467 0.81707 0.297017 -0.270669 0.915707 60 55 44
0.26527 0.155477 0.821007 0.708163 -0.237042 0.665069 72 66 54
0.224343 0.151152 0.850162 -0.118499 -0.194746 0.973669 70 64 52
0.221709 0.151412 0.848971 0.477849 -0.363056 0.799907 69 63 51
0.218392 0.15026 0.851019 0.391063 0.0365467 0.919638 67 60 49
0.199807 0.151564 0.853267 0.715676 -0.245752 0.653769 66 59 47
0.186241 0.144455 0.889044 0.761571 -0.247259 0.59906 64 59 47
0.186489 0.144407 0.889003 0.732508 -0.262878 0.627955 64 59 47
0.520562 0.11072 0.981028 -0.228733 0.139863 0.96339 246 208 110
0.51407 0.109851 0.983025 0.412297 -0.233005 0.88075 250 210 112
0.511966 0.109945 0.984016 0.425161 -0.137305 0.894643 252 217 119
0.503231 0.110421 0.988043 0.254984 0.141017 0.956607 252 226 122
0.486307 0.110429 0.992439 0.393657 -0.15124 0.906731 252 211 105
0.481183 0.109045 0.993571 0.269096 -0.239179 0.932942 246 198 91
0.478216 0.110498 0.994114 -0.12071 -0.0533757 0.991252 239 188 83
0.474482 0.109978 0.9943 0.119656 -0.149468 0.9815 246 198 96
0.469869 0.110263 0.99422 -0.0608931 -0.243163 0.968072 242 197 97
0.467883 0.110248 0.994165 -0.0690966 -0.148652 0.986473 247 200 100
0.464425 0.109971 0.994075 -0.0693943 -0.0972505 0.992838 252 212 113
0.46258 0.110057 0.993974 -0.109374 -0.122541 0.986418 239 192 94
0.456357 0.111703 0.993259 -0.375344 -0.0183145 0.926705 252 226 128
0.455418 0.111452 0.993952 0.498422 0.0132031 0.866834 247 210 112
0.455074 0.111154 0.993455 0.0833033 -0.0680234 0.9942 247 207 110
0.45294 0.111537 0.993093 -0.215495 -0.198214 0.956176 232 184 92
0.447652 0.112487 0.992124 0.217355 0.00983325 0.976043 241 205 117
0.445716 0.112549 0.992793 0.265644 -0.0538686 0.962565 241 207 121
0.280129 0.157277 0.812438 0.747332 -0.403523 0.527887 38 36 29
0.276981 0.15677 0.818974 0.312008 -0.409386 0.857353 38 37 30
0.275819 0.156587 0.819932 0.271768 -0.509078 0.816689 41 39 31
0.27534 0.155876 0.819508 0.270095 -0.533355 0.801611 39 37 30
0.274412 0.156872 0.822087 0.266473 -0.726059 0.633901 60 57 48
0.269815 0.156804 0.819757 0.146183 0.117223 0.982288 70 65 54
0.266984 0.157118 0.818936 0.267321 -0.796002 0.543066 72 66 55
0.267104 0.156519 0.819059 0.704948 -0.193692 0.682299 72 66 54
0.219264 0.153227 0.850356 -0.299575 0.0600414 0.952182 70 63 50
0.219493 0.152177 0.849828 0.0967076 0.625829 0.773941 71 64 51
0.190952 0.147338 0.88651 0.758745 -0.239294 0.605842 65 57 46
0.187062 0.148063 0.886773 0.878165 0.036209 0.476985 64 58 48
0.187078 0.147024 0.889043 0.758008 -0.249543 0.602621 64 58 47
0.187359 0.146842 0.889004 0.730732 -0.263818 0.629628 63 58 46
0.187818 0.146788 0.888802 0.744356 -0.256309 0.616636 64 57 46
0.167057 0.140288 0.930534 0.744622 -0.273596 0.608838 62 57 45
0.63681 0.174299 0.647209 -0.142926 0.352568 0.924807 90 81 68
0.523358 0.112091 0.980712 0.398849 0.432176 0.808792 247 208 112
0.522284 0.112372 0.980461 0.478298 -0.0296448 0.877697 247 207 110
0.519662 0.112354 0.981122 0.00708199 0.00918007 0.999933 245 204 106
0.5143 0.111167 0.983584 -0.509785 -0.262521 0.819269 250 209 111
0.510952 0.112125 0.984844 0.381212 -0.142342 0.913464 253 215 115
0.503045 0.110571 0.987852 0.306284 0.179819 0.934802 252 225 122
0.499206 0.110816 0.987904 0.285672 0.110969 0.951881 252 212 106
0.500874 0.110594 0.988495 0.326434 0.105548 0.939308 251 216 112
0.498904 0.111444 0.988331 0.212537 0.267073 0.939947 251 211 104
0.497257 0.110966 0.988246 0.455257 -0.0919902 0.885595 251 206 97
0.490423 0.111379 0.991284 0.195289 0.0178937 0.980583 252 211 107
0.488324 0.110902 0.991866 0.488726 -0.123575 0.863642 248 204 101
0.488214 0.110859 0.992106 0.488576 -0.123826 0.86369 248 204 101
0.488163 0.110943 0.992285 0.438989 -0.165712 0.883079 248 205 101
0.486266 0.111013 0.992552 0.492453 -0.119851 0.862048 252 211 106
0.481946 0.110527 0.99401 0.320324 0.0223706 0.947044 247 200 93
0.482005 0.110584 0.993848 0.353516 -0.0527219 0.933942 247 200 94
0.480019 0.110509 0.994352 0.0477687 -0.0439636 0.99789 250 203 97
0.480105 0.110461 0.994433 0.0341653 -0.0150904 0.999302 250 203 97
0.475895 0.111101 0.994273 -0.0430494 -0.396726 0.916927 247 196 91
0.473282 0.11177 0.994701 -0.210125 -0.334669 0.91861 246 200 97
0.4709 0.111934 0.994437 0.19217 -0.379014 0.905218 242 196 96
0.466873 0.111942 0.994314 -0.0697782 -0.108218 0.991675 241 196 97
0.463587 0.111823 0.994267 -0.0847299 -0.078549 0.993303 243 197 100
0.460964 0.111959 0.99421 0.0825608 -0.0298234 0.99614 241 195 99
0.458896 0.1117 0.994278 -0.362434 -0.145701 0.92055 252 219 124
0.453952 0.11348 0.993742 -0.217845 -0.211386 0.952817 232 183 89
0.450512 0.112446 0.993009 -0.435904 -0.133611 0.89002 236 196 107
0.281889 0.159797 0.813704 0.695121 0.349859 0.628017 40 36 29
0.280225 0.158343 0.815502 0.744198 0.223648 0.629405 40 37 30
0.278903 0.159488 0.81701 0.747248 0.0390539 0.663397 57 53 43
0.277786 0.158361 0.817874 0.71872 -0.132903 0.68248 48 45 37
0.276241 0.157383 0.819471 0.277059 -0.518113 0.809195 48 46 37
0.27692 0.157574 0.821074 0.271124 -0.528497 0.804477 49 47 38
0.277512 0.158318 0.820365 0.281952 -0.454988 0.844683 56 52 43
0.277571 0.158639 0.820558 0.391656 -0.588629 0.707193 61 57 47
0.272392 0.157566 0.822716 0.268523 -0.612836 0.743187 72 66 56
0.272402 0.157661 0.822338 0.268161 -0.610163 0.745514 72 66 56
0.220368 0.155017 0.850499 -0.286159 0.10639 0.952257 70 62 51
0.218863 0.154872 0.850478 -0.28269 0.115571 0.952224 52 46 35
0.85974 0.0814524 1.04422 -0.44399 -0.500703 0.743081 2 2 0
0.639133 0.176863 0.649231 -0.705047 -0.362194 0.609691 90 84 69
0.637062 0.176705 0.64915 -0.421464 -0.603862 0.676549 91 84 69
0.633055 0.175971 0.648207 -0.353729 -0.460309 0.814243 90 83 70
0.519044 0.113867 0.981715 0.428616 -0.15613 0.889894 246 206 107
0.517779 0.112587 0.98212 0.482021 -0.483509 0.730668 251 214 116
0.516907 0.113519 0.982786 0.246302 -0.246617 0.937292 249 212 113
0.515262 0.113384 0.983736 0.366216 0.012737 0.930443 245 204 107
0.513093 0.113318 0.984399 0.265967 -0.00769455 0.963952 245 203 103
0.511006 0.113401 0.985011 0.501698 -0.30363 0.810005 251 213 112
0.509083 0.11325 0.983817 0.181562 -0.86115 0.474822 252 216 114
0.508847 0.11342 0.985543 0.24584 -0.444309 0.861483 252 218 116
0.507213 0.113648 0.984911 0.508034 -0.555694 0.658108 250 217 115
0.50598 0.113715 0.984937 0.230335 -0.823251 0.518848 251 217 114
0.504042 0.112432 0.987143 0.559723 0.0914716 0.823616 250 214 112
0.503919 0.113085 0.987765 0.466769 -0.182389 0.865368 247 210 109
0.501839 0.113085 0.988395 0.287279 -0.131104 0.948832 252 215 111
0.499934 0.113108 0.988603 0.164579 -0.234697 0.958035 252 210 105
0.49814 0.113251 0.988342 0.238469 0.0990468 0.966086 250 203 98
0.496079 0.113062 0.988942 0.31535 -0.666721 0.675306 247 199 93
0.49139 0.113479 0.991274 -0.0658847 -0.112823 0.991428 253 218 114
0.489556 0.113176 0.991408 0.219377 -0.0804785 0.972315 250 213 109
0.487489 0.113285 0.99212 0.491842 -0.0836178 0.86666 251 210 106
0.487245 0.113063 0.992027 0.5041 -0.153493 0.849896 250 209 104
0.480917 0.112132 0.994443 0.127935 -0.0401956 0.990968 250 204 96
0.47916 0.112184 0.994249 -0.0582409 0.0175663 0.998148 246 196 90
0.478217 0.113163 0.99441 -0.43287 0.0515509 0.899981 243 191 85
0.47606 0.112933 0.995542 -0.157706 -0.690605 0.705829 244 194 88
0.47431 0.11302 0.995378 -0.314176 -0.696973 0.64461 245 199 94
0.470147 0.113564 0.995057 0.103471 -0.4116 0.905472 244 198 98
0.465944 0.113559 0.994537 -0.0105359 -0.169581 0.98546 247 204 107
0.463876 0.113541 0.99443 -0.0989436 -0.0729501 0.992415 247 205 107
0.461928 0.113564 0.994198 -0.0537219 -0.0311051 0.998071 239 191 95
0.460094 0.113565 0.994439 0.131584 -0.111152 0.985054 241 198 101
0.457807 0.113482 0.994523 -0.15456 -0.378233 0.912716 249 212 115
0.45584 0.113562 0.99375 -0.152098 -0.303651 0.940565 244 203 106
0.45157 0.114457 0.993618 -0.233228 -0.126196 0.964199 228 185 96
0.449499 0.114528 0.992798 -0.22484 -0.286523 0.931317 230 194 103
0.447119 0.114464 0.992592 0.415431 -0.329656 0.847788 240 207 116
0.445138 0.114503 0.99339 0.421886 -0.307196 0.85302 239 204 117
0.27642 0.160218 0.823197 0.291465 -0.580407 0.760378 75 70 59
0.274418 0.158878 0.82301 0.271722 -0.578891 0.768799 75 69 59
0.272456 0.159737 0.823051 0.26598 -0.639025 0.721735 75 69 57
0.224831 0.157002 0.851094 -0.299291 0.061323 0.952189 73 64 53
0.225669 0.157373 0.850217 -0.312638 -0.00866441 0.949833 73 64 53
0.22621 0.157177 0.85103 -0.231454 -0.301158 0.925058 73 64 53
0.222844 0.156993 0.850531 -0.278582 0.134347 0.95097 71 62 51
0.223357 0.156842 0.851123 -0.280701 0.128536 0.95115 71 62 51
0.221846 0.156693 0.851111 -0.279434 0.129185 0.951435 69 62 51
0.219433 0.156827 0.849936 -0.297988 0.0650329 0.952352 69 62 51
0.21942 0.156822 0.849996 -0.282497 0.115183 0.952328 69 62 51
0.860281 0.0817307 1.04682 -0.138665 -0.836539 0.53007 2 1 0
0.658021 0.177198 0.648655 -0.112541 -0.842629 0.526603 87 81 67
0.656507 0.176878 0.64568 -0.0626462 -0.7959 0.602178 86 80 66
0.636478 0.178528 0.649773 -0.430855 -0.36019 0.827422 92 86 71
0.636182 0.178665 0.649428 -0.506308 -0.245166 0.826768 93 84 70
0.530745 0.11506 0.975296 0.448909 -0.328628 0.830954 230 190 96
0.527923 0.115168 0.977226 0.465012 -0.187455 0.865231 243 202 104
0.52841 0.115011 0.976824 0.460127 -0.253719 0.850829 242 202 104
0.527457 0.114645 0.977484 0.463731 -0.230774 0.855393 240 199 101
0.525931 0.114411 0.978832 0.17232 -0.280177 0.944355 243 206 109
0.52415 0.114291 0.979705 0.317571 0.026092 0.947875 249 214 119
0.517725 0.11432 0.983007 0.238477 -0.154438 0.95879 247 208 109
0.516213 0.115124 0.98374 -0.0410689 -0.501673 0.864082 245 205 106
0.514036 0.115054 0.98442 0.147596 -0.00802805 0.989015 247 210 110
0.503055 0.114795 0.988233 0.416011 -0.347599 0.840304 251 215 114
0.502991 0.114968 0.988217 0.46729 -0.371676 0.802183 251 216 115
0.500976 0.114778 0.988844 0.231731 -0.322122 0.917899 248 203 99
0.498495 0.114742 0.989631 0.125981 -0.831782 0.540618 247 202 98
0.498694 0.114915 0.989032 0.129382 -0.269726 0.954205 246 201 97
0.495649 0.113615 0.989982 0.257626 -0.765537 0.589561 247 205 101
0.493474 0.113568 0.990916 0.308498 -0.128147 0.942554 243 203 99
0.483918 0.114606 0.994608 -0.122513 0.0236883 0.992184 252 211 105
0.482469 0.11479 0.993614 -0.00256431 -0.179138 0.983821 251 205 98
0.479993 0.113753 0.994372 0.0501787 0.0513073 0.997422 246 196 90
0.477311 0.114768 0.994551 -0.00693759 -0.130901 0.991371 245 195 89
0.475056 0.114604 0.995739 0.157914 0.0287798 0.987033 247 201 96
0.466739 0.115221 0.994608 0.0947647 -0.0953617 0.990922 241 197 99
0.464772 0.115249 0.994961 0.0595822 -0.171818 0.983325 244 204 105
0.462744 0.115198 0.994806 -0.261885 -0.332733 0.905928 248 208 110
0.460899 0.115085 0.994882 0.211584 -0.23827 0.947871 245 204 106
0.459078 0.115092 0.995089 0.114693 -0.40781 0.905835 252 219 120
0.456207 0.115419 0.994665 -0.377043 -0.510856 0.772571 245 204 107
0.455123 0.1155 0.993973 -0.283671 -0.485502 0.826933 241 194 100
0.450492 0.116411 0.9935 -0.190245 -0.210021 0.959009 246 208 117
0.448381 0.116461 0.992798 -0.246008 -0.229492 0.941708 240 205 114
0.444319 0.116337 0.994647 -0.340282 0.0476394 0.939116 226 190 105
0.43782 0.117869 0.992123 0.434107 0.0284359 0.900412 218 188 112
0.434844 0.117738 0.991608 -0.424306 -0.277514 0.861946 195 170 107
0.43239 0.11787 0.990171 -0.393284 -0.298982 0.869447 154 131 81
0.432377 0.117818 0.990067 -0.163716 -0.418939 0.893133 155 132 81
0.227494 0.158926 0.85133 0.813844 0.174446 0.55428 73 65 53
0.223917 0.158799 0.850605 -0.278876 0.133776 0.950964 74 64 54
0.2254 0.158961 0.850576 -0.297851 0.0706961 0.951991 74 64 53
0.222413 0.158646 0.850605 -0.278888 0.12642 0.951966 71 63 52
0.220989 0.158471 0.850693 -0.282923 0.107544 0.953094 70 64 53
0.859086 0.0831884 1.04777 -0.19843 -0.828893 0.523031 2 1 0
0.655938 0.178795 0.649343 -0.110969 -0.846915 0.52002 88 81 68
0.640019 0.179224 0.650804 -0.335203 -0.658856 0.67346 90 87 71
0.641005 0.179374 0.653424 -0.344545 -0.543167 0.765675 90 87 71
0.53204 0.117496 0.974741 0.452806 -0.211547 0.86615 225 187 93
0.529787 0.117402 0.976447 0.460079 -0.18109 0.869214 240 197 99
0.526792 0.116264 0.978671 0.416731 -0.155136 0.895694 246 208 109
0.52664 0.116924 0.978889 0.38301 -0.231916 0.894158 248 210 112
0.524457 0.116495 0.979632 0.211648 -0.208071 0.954941 242 206 111
0.520438 0.116172 0.981018 0.489966 -0.119007 0.86358 245 207 111
0.518495 0.116305 0.982424 0.48958 -0.181697 0.852817 250 212 112
0.512281 0.115251 0.985027 0.33438 -0.0264927 0.942066 251 217 117
0.510139 0.115238 0.985712 0.277726 -0.0765058 0.957609 248 208 108
0.509745 0.115792 0.98599 0.0880536 -0.0199191 0.995917 245 207 107
0.508003 0.115255 0.98641 0.265055 -0.110637 0.957865 246 214 114
0.505991 0.115344 0.987086 0.503466 -0.293208 0.812743 249 217 119
0.496147 0.115098 0.991078 0.353136 -0.706193 0.613666 251 215 113
0.494247 0.115197 0.991302 0.312969 -0.360347 0.87875 253 228 124
0.494368 0.115145 0.99148 0.432567 -0.679764 0.592289 253 227 123
0.49221 0.115173 0.991869 0.204694 -0.324387 0.923511 251 222 119
0.492249 0.115094 0.991434 -0.155421 -0.09776 0.982999 251 221 119
0.48836 0.115393 0.992478 0.483248 -0.0757283 0.872202 251 215 113
0.488189 0.11516 0.992545 0.483155 -0.0746246 0.872349 251 214 112
0.486287 0.115344 0.992881 0.496219 -0.135689 0.857529 250 211 107
0.48606 0.11539 0.99378 0.486791 -0.0601393 0.871446 249 212 106
0.479156 0.115293 0.994786 0.0621559 -0.302635 0.951078 246 194 88
0.475755 0.116162 0.996223 -0.443631 -0.0129793 0.896116 241 193 90
0.47452 0.115096 0.997062 0.214095 0.449012 0.867497 248 202 99
0.472824 0.115495 0.995553 -0.267887 0.014621 0.963339 248 201 101
0.468099 0.116996 0.995414 -0.231361 -0.293681 0.927482 239 196 99
0.465872 0.117178 0.995082 0.227105 -0.430842 0.873383 235 191 94
0.463895 0.117247 0.995239 0.0457836 -0.262429 0.963865 247 205 108
0.462035 0.117225 0.995441 -0.15299 -0.37911 0.912617 238 195 100
0.459754 0.117133 0.995572 0.250934 -0.459834 0.851813 252 222 127
0.455256 0.117193 0.994691 -0.103531 -0.277807 0.955042 237 194 103
0.457107 0.117089 0.995459 0.0226681 -0.145126 0.989154 247 213 119
0.452947 0.117147 0.994435 -0.143522 -0.218175 0.965298 225 178 89
0.431115 0.119499 0.991221 -0.0877216 -0.346657 0.933881 129 109 68
0.429014 0.119509 0.990969 -0.150843 -0.28274 0.947262 133 115 76
0.225104 0.160574 0.850792 -0.0869692 0.476666 0.874772 76 67 56
0.223466 0.160457 0.850657 -0.275757 0.141031 0.950825 58 49 39
0.525678 0.118257 0.979953 0.230429 -0.38428 0.893997 250 217 119
0.52368 0.11822 0.980561 0.279157 -0.483887 0.829412 242 206 109
0.519323 0.118522 0.981858 0.443252 -0.370785 0.816116 252 217 119
0.518002 0.117114 0.982723 0.468024 -0.257115 0.845486 251 215 116
0.515332 0.117027 0.984704 0.482636 -0.383402 0.787443 247 213 113
0.513407 0.117165 0.984914 0.371512 -0.303788 0.877321 252 228 128
0.511175 0.117162 0.985877 0.341199 -0.124533 0.931705 252 223 124
0.509118 0.117228 0.986318 0.339725 -0.10444 0.934708 249 219 120
0.506936 0.117245 0.987166 0.386801 -0.131827 0.912692 252 233 134
0.504596 0.117161 0.988346 0.322157 -0.036152 0.945996 249 216 119
0.502127 0.116496 0.989188 0.319134 -0.0146031 0.947597 247 210 108
0.500147 0.116575 0.989491 0.272979 -0.214325 0.937842 246 202 100
0.498264 0.116639 0.992509 0.349467 -0.76183 0.545424 252 212 109
0.494906 0.11671 0.993164 0.445652 -0.663748 0.600693 251 222 122
0.492908 0.11664 0.99326 0.516584 -0.562556 0.645502 253 225 124
0.491023 0.116885 0.992703 0.536787 0.251423 0.805385 254 222 122
0.490253 0.116254 0.994197 0.357805 -0.504243 0.785949 254 220 122
0.485175 0.116841 0.993993 0.136513 -0.244098 0.960094 252 215 108
0.483439 0.116894 0.993853 0.0737971 -0.263678 0.961784 250 207 100
0.483403 0.116995 0.993901 0.0711949 -0.278472 0.957802 250 207 100
0.485063 0.116904 0.994242 0.030613 -0.119873 0.992317 251 214 107
0.481101 0.117397 0.992425 -0.421846 -0.493718 0.760453 247 196 90
0.478307 0.117004 0.994987 0.187405 -0.122105 0.974664 239 187 83
0.475252 0.116991 0.996221 -0.0269804 0.20832 0.977689 237 191 88
0.47343 0.117058 0.995703 -0.376929 0.190903 0.906356 243 202 99
0.471762 0.117233 0.995717 -0.206819 -0.159947 0.965216 249 207 107
0.464817 0.118765 0.995629 -0.0461469 -0.234147 0.971105 246 202 107
0.456112 0.119031 0.995828 -0.232459 -0.0464397 0.971497 245 202 110
0.453971 0.119079 0.995085 -0.213282 -0.208086 0.954574 215 169 79
0.451808 0.119115 0.994401 -0.425657 -0.0791488 0.901416 234 196 107
0.449269 0.119289 0.992155 -0.42585 -0.0715074 0.901964 248 217 125
0.436939 0.119981 0.99199 0.552108 0.0311074 0.833192 216 188 114
0.43597 0.120267 0.9928 -0.389712 -0.230876 0.891527 201 174 109
0.434222 0.120426 0.991919 -0.404445 -0.317689 0.857612 170 146 90
0.224471 0.162292 0.850609 0.820089 -0.106402 0.562256 77 68 57
0.525781 0.118992 0.980015 0.358922 -0.34506 0.867242 249 215 117
0.519354 0.118922 0.982237 0.477471 -0.299046 0.826192 252 219 121
0.517562 0.119563 0.983617 0.582225 -0.345228 0.736092 247 209 111
0.516808 0.119141 0.984838 0.275414 -0.0193695 0.96113 251 213 114
0.512287 0.119184 0.985602 0.453966 0.0994044 0.885457 250 227 128
0.509665 0.119241 0.986651 -0.326716 0.284936 0.901148 249 226 126
0.50731 0.119103 0.98623 0.498536 0.296346 0.814641 249 228 129
0.503187 0.11845 0.988912 0.342578 0.0117914 0.939415 251 226 126
0.500903 0.118388 0.989965 -0.468417 -0.0943691 0.878453 246 207 105
0.497904 0.118986 0.992566 0.484329 -0.606857 0.630199 251 213 111
0.495425 0.117637 0.994174 0.0981219 -0.787665 0.60824 251 223 121
0.486235 0.118483 0.995339 0.0229259 0.161168 0.986661 250 219 113
0.48776 0.118276 0.996265 -0.210348 0.466058 0.859385 253 223 119
0.484445 0.118497 0.994408 0.0783726 -0.168813 0.982527 249 211 105
0.484437 0.11858 0.994407 0.0927838 -0.178147 0.97962 249 211 105
0.482835 0.118749 0.993903 0.178822 -0.341042 0.922883 246 199 93
0.482802 0.118654 0.994034 0.210151 -0.314852 0.925584 246 199 93
0.481265 0.118697 0.994365 0.119047 -0.264229 0.957084 240 188 84
0.479143 0.118714 0.995121 0.239073 0.0232175 0.970724 237 184 81
0.479235 0.11868 0.995013 0.267859 -0.0782962 0.960271 237 185 82
0.477909 0.11841 0.995239 0.277798 -0.0182362 0.960466 237 184 81
0.474359 0.118722 0.996121 -0.0827895 -0.158191 0.983932 249 206 104
0.475242 0.118828 0.995864 0.162915 0.0859729 0.982887 240 193 90
0.472657 0.118797 0.995961 0.12003 -0.225021 0.966933 247 205 103
0.470745 0.118757 0.996219 0.0282715 -0.119725 0.992405 246 201 103
0.468875 0.118781 0.996011 -0.0422686 -0.310772 0.949544 241 202 103
0.466766 0.118776 0.995664 -0.161684 -0.363303 0.917534 235 190 94
0.466995 0.118745 0.995725 -0.158773 -0.348631 0.923714 237 193 96
0.458389 0.119014 0.996471 0.164334 -0.153912 0.974323 248 213 119
0.452783 0.121019 0.995193 -0.351169 -0.234487 0.906475 235 196 107
0.437527 0.122365 0.990917 0.0943134 -0.19768 0.975719 223 192 116
0.435471 0.122256 0.991602 -0.0310969 -0.284745 0.958099 201 173 108
0.432648 0.122022 0.990709 -0.307327 -0.348585 0.88546 148 125 78
0.43441 0.121794 0.992076 -0.423333 -0.243726 0.872575 171 145 92
0.530038 0.17817 0.718813 -0.487166 -0.456912 0.744245 103 96 80
0.524677 0.121119 0.980741 0.245533 0.0308343 0.968898 246 211 114
0.52245 0.121141 0.981206 0.472168 -0.341104 0.812838 251 224 126
0.520963 0.121015 0.982185 0.37532 -0.305374 0.875146 251 227 130
0.516069 0.120937 0.985754 0.524978 0.069213 0.848297 250 219 122
0.50388 0.120272 0.98876 0.458927 -0.159105 0.874112 250 230 130
0.502073 0.120475 0.989306 0.347244 0.0341233 0.937154 251 228 125
0.496888 0.119684 0.991697 0.0331657 -0.449229 0.892801 251 220 117
0.485564 0.120274 0.994737 0.223955 -0.0557834 0.973002 252 231 130
0.485507 0.120309 0.994756 0.226981 -0.059924 0.972054 252 231 130
0.487202 0.120165 0.99503 0.0761265 0.123553 0.989414 251 231 130
0.483731 0.120334 0.994729 0.0544716 -0.217722 0.97449 249 212 110
0.483781 0.120293 0.994728 0.0466921 -0.219633 0.974465 249 212 111
0.482003 0.120462 0.994601 0.247956 -0.290604 0.924158 240 189 88
0.482061 0.120438 0.994582 0.27398 -0.301444 0.913273 240 190 88
0.480092 0.120488 0.994907 0.218325 -0.0569046 0.974216 238 185 83
0.480166 0.120466 0.994859 0.210099 -0.0762147 0.974705 238 185 83
0.478092 0.120496 0.995364 0.237938 0.0412114 0.970406 244 194 93
0.478161 0.12048 0.995338 0.26019 0.0341434 0.964954 244 193 92
0.476891 0.12028 0.995597 0.309991 -0.0131803 0.950648 245 200 99
0.47444 0.12038 0.996277 0.144811 -0.0252679 0.989137 247 204 103
0.470147 0.120639 0.996307 0.201473 -0.212086 0.956257 243 205 106
0.469926 0.120421 0.996251 0.219405 -0.166214 0.961371 243 206 107
0.467709 0.120503 0.996484 -0.224357 -0.260694 0.93899 249 217 117
0.467925 0.120463 0.996558 -0.238634 -0.271508 0.932383 251 222 121
0.465803 0.120413 0.995952 -0.245255 -0.203008 0.947965 237 194 97
0.463772 0.120357 0.996148 -0.0227093 -0.104704 0.994244 241 201 104
0.463593 0.120619 0.996136 -0.0176136 -0.0802666 0.996618 240 201 103
0.460606 0.120779 0.996774 0.527298 -0.24021 0.815019 247 212 113
0.459034 0.121279 0.99634 0.126465 0.0854602 0.988283 248 208 111
0.457111 0.12101 0.99658 -0.0605253 -0.0582206 0.996467 249 207 113
0.455093 0.121377 0.995954 -0.344769 -0.124336 0.930416 231 188 95
0.452462 0.121507 0.99549 -0.236795 -0.444833 0.863743 237 199 111
0.438544 0.124025 0.990873 0.114547 -0.366867 0.923194 223 193 115
0.436514 0.123933 0.991468 0.0697879 -0.129678 0.989097 206 178 107
0.433485 0.12372 0.99173 -0.095279 -0.151454 0.983862 145 122 75
0.540704 0.120404 0.98253 -0.38236 -0.014735 0.923896 129 113 74
0.523689 0.123011 0.981167 0.318815 -0.0263758 0.94745 250 218 124
0.518589 0.122368 0.983511 0.514303 0.0384321 0.856747 252 225 128
0.516617 0.122134 0.985749 0.488409 -0.279054 0.826792 250 227 131
0.514654 0.121925 0.987998 0.494013 -0.249003 0.833036 252 231 133
0.514623 0.122368 0.985973 0.520387 0.238961 0.819814 251 231 135
0.505247 0.122602 0.987478 -0.485085 -0.0690599 0.871736 251 233 133
0.503175 0.122529 0.988786 0.411701 -0.128288 0.902244 248 217 117
0.501203 0.122407 0.990088 0.146917 -0.000732645 0.989148 250 217 116
0.497976 0.121484 0.991735 0.260993 -0.211061 0.941985 250 216 115
0.496057 0.121435 0.992486 0.156167 -0.216029 0.963817 251 227 124
0.49551 0.121352 0.992234 0.181756 -0.349519 0.919131 252 234 129
0.49109 0.120505 0.995706 -0.299528 0.359803 0.883643 249 229 127
0.489669 0.1203 0.996384 -0.0543006 -0.469423 0.881302 250 229 128
0.486551 0.12199 0.995788 -0.279833 -0.296756 0.913033 253 244 142
0.484969 0.122116 0.995121 -0.0134409 -0.243556 0.969794 252 241 138
0.484686 0.121821 0.995087 0.0492604 -0.253102 0.966185 252 235 133
0.483179 0.122147 0.994919 -0.0243294 -0.269941 0.962569 245 206 105
0.483082 0.122139 0.994953 -0.0358923 -0.300929 0.952971 244 204 103
0.477204 0.122128 0.995114 -0.0580311 -0.246753 0.967339 251 218 117
0.475154 0.12229 0.995823 0.150512 0.0351714 0.987982 250 221 121
0.475192 0.12213 0.995787 0.131481 0.0365772 0.990644 250 219 119
0.473324 0.122219 0.996015 0.220852 0.0308282 0.97482 251 211 115
0.470861 0.122052 0.99654 -0.146271 0.0415646 0.988371 245 209 112
0.471143 0.122268 0.996532 -0.0583242 -0.0344563 0.997703 244 208 111
0.466833 0.122442 0.996393 -0.0270915 0.0395007 0.998852 235 194 98
0.466609 0.122439 0.996413 -0.0154559 0.016246 0.999748 233 191 95
0.464707 0.12247 0.996228 -0.13812 -0.159727 0.977451 239 198 101
0.462565 0.122428 0.996148 0.0616672 -0.172563 0.983066 250 216 117
0.461612 0.122963 0.996378 0.0901111 -0.0691056 0.993531 252 215 116
0.459827 0.123022 0.996366 0.280166 0.106076 0.954073 247 206 108
0.457803 0.122994 0.996765 0.241863 0.145728 0.959305 246 202 108
0.456121 0.123199 0.996251 -0.123063 -0.093248 0.988008 248 206 115
0.453376 0.123023 0.995808 0.0840692 -0.277536 0.95703 233 193 105
0.451074 0.123372 0.996102 -0.322618 0.247338 0.913642 239 201 118
0.434951 0.126174 0.991743 -0.284413 0.101482 0.953316 188 164 106
0.432245 0.126168 0.990971 -0.245861 0.0802441 0.965978 131 110 69
0.42982 0.12627 0.98981 -0.102525 -0.869587 0.48302 134 119 81
0.695053 0.167922 0.732825 -0.670755 -0.520082 0.528775 3 3 1
0.695671 0.167425 0.735188 -0.448552 -0.731718 0.513215 4 4 1
0.541772 0.122479 0.983094 -0.415215 0.0417247 0.908766 135 119 81
0.49662 0.122407 0.992347 0.168842 -0.1337 0.976533 247 214 114
0.495262 0.123044 0.993188 0.198883 -0.311831 0.929089 251 232 130
0.494285 0.122206 0.993557 0.552729 -0.172203 0.815375 252 238 137
0.493577 0.12248 0.994767 0.584922 0.0703233 0.808035 252 239 140
0.48879 0.122009 0.996367 -0.134709 -0.395154 0.908684 253 234 136
0.486074 0.123614 0.995856 -0.270168 -0.100334 0.957571 250 239 137
0.478016 0.123913 0.995451 -0.0597018 -0.216573 0.974439 248 222 121
0.478067 0.123777 0.995443 -0.0661597 -0.224088 0.972321 247 219 118
0.476045 0.123946 0.995789 0.23938 0.0764623 0.967911 253 238 136
0.476082 0.123898 0.99578 0.229762 0.0824288 0.96975 253 238 136
0.476133 0.123753 0.995789 0.220882 0.0659129 0.973071 253 238 135
0.472076 0.124004 0.996275 0.326625 -0.211969 0.921079 247 217 121
0.463516 0.124233 0.996422 0.00858736 0.107555 0.994162 252 224 127
0.463597 0.12435 0.996358 -0.0527375 0.00538185 0.998594 253 224 128
0.461606 0.124272 0.996553 0.161159 0.14899 0.975618 246 208 113
0.46073 0.124654 0.996307 0.148194 0.0151971 0.988842 245 204 112
0.459034 0.124745 0.996219 0.188496 -0.19475 0.96257 233 193 108
0.456735 0.125 0.996502 0.196115 -0.372685 0.906998 218 181 110
0.454603 0.125026 0.996018 -0.159712 -0.0617023 0.985233 202 165 98
0.452013 0.124825 0.99649 -0.208463 -0.39549 0.8945 213 178 110
0.437834 0.126295 0.991952 -0.109776 -0.0467096 0.992858 209 182 109
0.437402 0.126172 0.992266 -0.335887 0.114579 0.934907 200 174 102
0.434397 0.127774 0.991307 0.0823333 0.042355 0.995704 173 151 96
0.432699 0.127656 0.99178 0.0281975 0.0948457 0.995093 134 115 74
0.432804 0.127546 0.99177 -0.0346346 0.0542163 0.997928 136 117 76
0.858425 0.087798 1.05424 -0.862067 -0.202845 0.46443 2 1 0
0.695962 0.169464 0.737363 -0.347758 -0.654125 0.671703 4 4 2
0.498505 0.124405 0.991373 0.544445 -0.144316 0.826288 251 221 121
0.497827 0.124579 0.991327 0.32692 0.380527 0.865056 247 217 117
0.49535 0.124507 0.992597 0.580359 0.0682537 0.811495 251 230 131
0.494576 0.125188 0.993427 0.554469 -0.0698214 0.82927 252 234 134
0.489594 0.123564 0.997426 -0.380372 0.210574 0.900542 252 239 141
0.486164 0.123713 0.995892 -0.321814 -0.0928217 0.942242 249 239 137
0.482965 0.12552 0.994984 -0.137276 0.108652 0.984556 251 220 117
0.481 0.125622 0.995163 0.0399508 0.0805641 0.995948 252 225 126
0.48105 0.1255 0.99516 0.0421907 0.0614628 0.997217 252 224 125
0.479086 0.125604 0.995504 0.13201 -0.108202 0.985325 252 233 134
0.479099 0.125451 0.995617 0.113154 -0.163959 0.979956 252 232 133
0.47703 0.125525 0.995777 0.0122752 -0.157363 0.987465 250 234 133
0.476988 0.125733 0.995514 0.252391 0.0652067 0.965426 249 233 133
0.474886 0.125699 0.996602 0.618433 -0.334043 0.711305 249 223 125
0.473068 0.125731 0.99668 0.594946 -0.358259 0.719507 252 221 125
0.471433 0.12594 0.996369 -0.0512164 -0.00814334 0.998654 253 226 130
0.467388 0.125918 0.996525 -0.0126833 -0.00709955 0.999894 251 225 132
0.462867 0.126053 0.996324 0.0103864 -0.166791 0.985938 250 216 125
0.464591 0.125971 0.996412 0.0128528 0.057492 0.998263 251 224 129
0.461105 0.126129 0.99616 0.232594 -0.233258 0.944188 238 201 120
0.462762 0.125986 0.996393 0.0275313 -0.15478 0.987565 250 216 126
0.460018 0.126324 0.99638 0.158265 -0.223362 0.961801 198 160 92
0.458191 0.126329 0.996632 0.145574 -0.215561 0.965578 162 126 74
0.456169 0.12671 0.996594 0.0942783 -0.0616375 0.993636 137 103 66
0.453185 0.126799 0.996855 -0.125045 -0.458754 0.879721 122 89 56
0.450906 0.126633 0.996367 -0.281576 -0.701132 0.655079 152 119 74
0.438902 0.128179 0.992183 0.656033 0.0503426 0.753052 207 181 107
0.436189 0.128324 0.991911 -0.203327 0.0769122 0.976085 196 172 107
0.433542 0.128439 0.991243 -0.362204 0.0870503 0.928025 150 130 82
0.433487 0.129483 0.991471 0.0156579 -0.00616818 0.999858 136 118 72
0.432327 0.129162 0.992687 -0.0826685 -0.0926026 0.992265 121 104 65
0.43095 0.12843 0.990632 -0.196652 -0.366457 0.909416 122 106 69
0.852346 0.0902 1.04926 -0.739478 -0.176179 0.649718 17 17 16
0.693441 0.172393 0.737189 -0.40944 -0.665802 0.623752 5 3 1
0.690855 0.172124 0.734803 -0.519746 -0.646543 0.558432 6 4 1
0.496871 0.127165 0.990685 0.555204 0.187681 0.810262 253 230 132
0.496756 0.126898 0.991859 0.572881 0.0312124 0.819044 252 229 129
0.485119 0.12552 0.995281 -0.135341 0.108022 0.984893 252 243 146
0.485174 0.125654 0.995292 -0.151771 0.135279 0.979115 253 244 147
0.482957 0.125657 0.994916 -0.158953 0.14104 0.97716 251 221 118
0.480313 0.12738 0.994859 0.0607137 0.27377 0.959877 250 230 129
0.470526 0.127706 0.9961 -0.0336873 -0.0577364 0.997763 251 224 130
0.468535 0.127677 0.996175 0.217587 -0.144962 0.965216 253 233 138
0.465733 0.127589 0.99623 0.041413 -0.0680087 0.996825 248 224 129
0.464001 0.127762 0.996113 0.142666 -0.129861 0.981215 249 219 126
0.462175 0.1278 0.996349 0.210055 -0.200198 0.956973 240 205 126
0.460309 0.127836 0.996717 0.263509 -0.252935 0.930906 155 117 68
0.455284 0.12799 0.998113 0.523319 -0.612928 0.591993 113 81 61
0.453416 0.12722 0.997149 -0.139466 -0.530862 0.835904 123 90 62
0.437871 0.130603 0.990799 -0.185469 -0.489303 0.852164 206 179 112
0.853178 0.0914443 1.05063 -0.751516 -0.31142 0.581585 17 17 18
0.697357 0.171372 0.747563 -0.229924 -0.908572 0.348759 7 4 0
0.694445 0.172385 0.738874 -0.430927 -0.558216 0.709011 5 3 0
0.694423 0.172304 0.738768 -0.433808 -0.53807 0.722697 5 3 0
0.694836 0.172486 0.740396 -0.454605 -0.45098 0.768083 7 3 0
0.690483 0.174389 0.737174 -0.508883 -0.637738 0.578211 9 8 2
0.687954 0.173907 0.734169 -0.645061 -0.561538 0.518239 34 32 23
0.645547 0.156927 0.823259 -0.499014 0.396093 0.770776 52 44 36
0.486225 0.127385 0.995209 -0.274723 0.168075 0.94672 252 242 144
0.483948 0.127298 0.99481 0.0161964 0.109019 0.993908 250 228 130
0.476735 0.127228 0.996896 -0.175447 -0.549212 0.817058 252 235 136
0.474432 0.128306 0.99681 -0.0753843 -0.423711 0.902655 252 230 137
0.466586 0.129128 0.996708 0.24191 0.12316 0.962451 252 231 137
0.465 0.12929 0.996247 0.165291 -0.174877 0.970617 247 224 135
0.463279 0.129493 0.996223 0.394445 -0.322907 0.860316 242 215 136
0.4582 0.128225 0.998303 0.357048 -0.62401 0.695074 115 81 58
0.451091 0.12862 0.997822 -0.263311 -0.645846 0.716624 102 71 50
0.4534 0.12924 0.999196 -0.0157502 -0.763641 0.645449 85 56 37
0.433198 0.130956 0.992495 0.0279403 -0.0273983 0.999234 126 110 69
0.853092 0.0922315 1.05119 -0.683248 -0.474062 0.555372 25 25 26
0.694643 0.174143 0.743437 -0.336857 -0.862154 0.378441 7 3 0
0.693283 0.1744 0.739002 -0.408991 -0.716537 0.565067 7 4 0
0.690017 0.176188 0.739237 -0.596135 -0.600489 0.53295 19 18 8
0.687984 0.17628 0.737077 -0.601734 -0.583901 0.544956 64 61 48
0.685807 0.176772 0.735358 -0.651322 -0.550059 0.5227 89 83 71
0.685794 0.176379 0.734882 -0.583905 -0.599619 0.547276 88 83 70
0.68344 0.176324 0.732686 -0.722945 -0.275391 0.633648 88 84 71
0.485893 0.129464 0.994774 -0.396534 0.161171 0.903761 253 235 139
0.483221 0.128861 0.995025 0.378721 0.0691179 0.922927 247 214 115
0.471918 0.129223 0.996229 -0.108317 -0.314785 0.942962 246 216 125
0.473469 0.130024 0.996939 -0.135436 -0.498565 0.856207 247 215 125
0.469388 0.129436 0.99611 -0.0689497 -0.212772 0.974666 249 219 127
0.460549 0.12987 0.997733 0.380215 -0.34497 0.858157 109 76 49
0.455929 0.129482 0.999358 -0.364017 -0.605465 0.707746 107 75 56
0.455925 0.130384 0.999166 -0.274915 -0.741998 0.611442 116 83 59
0.454103 0.129806 1.00044 0.504184 -0.528821 0.682749 100 69 46
0.451058 0.130707 0.999645 0.0938756 -0.916699 0.388395 131 102 62
0.698511 0.174982 0.74901 -0.604145 -0.406009 0.685686 4 3 1
0.697084 0.175401 0.747184 -0.710985 -0.429522 0.556786 1 3 1
0.695795 0.176271 0.743458 -0.383325 -0.757369 0.528634 8 7 3
0.693385 0.176254 0.741552 -0.401068 -0.743273 0.535434 12 11 6
0.689739 0.176533 0.739408 -0.588545 -0.607307 0.53366 27 25 14
0.688465 0.177161 0.738758 -0.614019 -0.585484 0.529329 64 61 48
0.687579 0.178249 0.739222 -0.544125 -0.627457 0.556978 84 80 66
0.685045 0.177535 0.736848 -0.739354 -0.303711 0.600929 89 85 71
0.488196 0.130901 0.993229 0.585339 -0.0304285 0.810217 249 228 136
0.48726 0.130956 0.993248 0.3234 0.524712 0.787458 251 230 138
0.472115 0.130969 0.996694 0.0505167 -0.52162 0.851681 236 199 111
0.470228 0.130988 0.996501 -0.0504697 -0.27113 0.961219 237 202 112
0.468569 0.131108 0.996209 0.145598 -0.120796 0.981942 249 218 130
0.46676 0.131215 0.996385 0.318721 -0.190684 0.92847 247 217 135
0.464424 0.131266 0.996761 0.304148 -0.437934 0.845995 227 198 124
0.462318 0.131224 0.997693 0.580622 -0.501658 0.641263 136 104 64
0.461527 0.131501 0.998788 0.543515 -0.5755 0.611057 112 80 50
0.459664 0.131611 0.999175 0.505141 -0.0696268 0.860224 124 93 62
0.457864 0.131102 1.00018 0.0768064 -0.678014 0.731025 131 99 62
0.455678 0.130771 1.00064 0.0805465 -0.188199 0.978822 133 99 60
0.453812 0.131579 1.001 0.124255 -0.506511 0.853234 187 152 82
0.452177 0.132293 1.0017 0.0466517 -0.522675 0.851255 196 160 75
0.450312 0.132257 1.00154 0.012733 -0.934476 0.355799 185 154 76
0.695251 0.178086 0.744834 -0.376561 -0.792461 0.479799 2 6 2
0.695551 0.177755 0.745962 -0.562976 -0.663007 0.493436 3 5 1
0.692819 0.177973 0.744071 -0.45927 -0.753471 0.470482 31 29 21
0.689682 0.178519 0.741904 -0.606401 -0.621745 0.495693 51 49 37
0.690007 0.178127 0.741833 -0.606169 -0.626274 0.490245 37 36 24
0.690379 0.178905 0.743191 -0.580865 -0.658234 0.478878 39 38 26
0.484864 0.133049 0.992222 0.30893 0.541937 0.781579 233 195 109
0.471256 0.132644 0.996755 -0.114625 0.530692 0.839778 225 189 103
0.46814 0.133207 0.995337 0.114165 0.674202 0.72967 224 189 108
0.466148 0.133206 0.99597 0.300261 -0.102949 0.948285 214 177 106
0.464735 0.133582 0.994951 0.0593972 0.438428 0.896801 172 135 74
0.457476 0.132797 1.00104 -0.00325611 -0.18256 0.983189 178 145 74
0.454537 0.132941 1.00302 0.344084 -0.801082 0.48977 210 171 85
0.448985 0.132434 1.00491 -0.258235 -0.759526 0.597021 205 176 93
0.698583 0.177136 0.750348 -0.230184 -0.483869 0.844326 21 16 12
0.698037 0.177195 0.750576 -0.457672 -0.471764 0.753641 16 14 11
0.487183 0.134488 0.992316 0.5982 0.0788333 0.79746 193 155 71
0.495089 0.12791 1.02077 0.475792 -0.624943 0.618925 136 99 48
0.474463 0.131463 1.00985 0.054744 -0.892719 0.447275 215 176 89
0.457314 0.133895 1.00442 0.451167 -0.640634 0.621319 182 147 86
0.452973 0.133605 1.00384 0.110341 -0.792199 0.600205 207 167 80
0.451191 0.134031 1.00535 0.365003 -0.714123 0.597328 212 173 82
0.447037 0.134791 1.00466 0.0527949 -0.934811 0.3512 203 170 84
0.698002 0.179015 0.752088 -0.449455 -0.671583 0.589038 5 4 3
0.69727 0.180005 0.753286 -0.524213 -0.721981 0.451602 6 4 2
0.49169 0.1285 1.01996 -0.242236 -0.717431 0.653158 115 81 47
0.48948 0.129795 1.02055 -0.240398 -0.706852 0.665259 91 62 43
0.479115 0.132729 1.01038 0.263984 -0.813174 0.51871 150 118 60
0.479255 0.132717 1.01045 0.149345 -0.863033 0.482566 148 116 58
0.477566 0.131929 1.00999 0.250315 -0.795217 0.552244 208 173 96
0.476088 0.13249 1.01175 0.27715 -0.712429 0.644696 222 190 101
0.460763 0.13463 1.00672 -0.154885 -0.861519 0.483524 105 73 37
0.455078 0.134659 1.00431 0.283901 -0.835215 0.470973 174 137 78
0.45839 0.134996 1.00805 0.212347 -0.812749 0.542539 92 63 38
0.455627 0.135232 1.00473 0.416863 -0.71049 0.566947 130 96 53
0.453482 0.134848 1.00648 0.138202 -0.829117 0.541724 170 132 68
0.451612 0.135151 1.00826 0.473387 -0.667156 0.575158 181 143 67
0.701065 0.180807 0.756527 -0.375226 -0.807317 0.45546 4 3 0
0.698125 0.180988 0.754317 -0.426388 -0.773814 0.468407 5 4 1
0.541362 0.124729 1.03259 -0.0732359 -0.921801 0.380683 198 160 78
0.490863 0.130119 1.02208 -0.243426 -0.715045 0.655327 83 56 35
0.480332 0.133958 1.00995 0.314297 -0.812367 0.4912 128 98 51
0.477475 0.133406 1.01176 -0.0564167 -0.797133 0.601162 184 152 79
0.475835 0.134035 1.01328 -0.155705 -0.726142 0.669681 209 174 88
0.474884 0.132959 1.01385 0.202105 -0.731892 0.650759 225 193 100
0.456716 0.13574 1.00765 0.17254 -0.697957 0.695044 94 63 38
0.459722 0.134498 1.01514 -0.21779 -0.687873 0.692386 103 71 48
0.455815 0.136047 1.0089 -0.192738 -0.766463 0.612688 89 56 33
0.453643 0.136457 1.00921 0.167346 -0.706922 0.68721 97 64 33
0.699443 0.18171 0.757671 -0.482693 -0.746381 0.458173 6 5 2
0.543553 0.125461 1.03295 0.0803028 -0.884483 0.45961 187 151 84
0.478983 0.134254 1.01204 0.0845438 -0.781068 0.618697 135 102 51
0.477566 0.134914 1.01353 -0.0804671 -0.722971 0.686176 152 117 61
0.474391 0.134118 1.01502 -0.139204 -0.4239 0.894948 215 177 84
0.472296 0.134898 1.01542 0.332554 -0.775814 0.53621 224 181 85
0.458274 0.13644 1.01065 -0.122418 -0.863751 0.488823 71 46 30
0.700779 0.183658 0.759328 -0.427159 -0.813492 0.394672 51 44 35
0.697359 0.183722 0.758372 -0.47226 -0.75867 0.448766 53 45 35
0.696762 0.184277 0.759047 -0.564268 -0.68731 0.457391 54 46 35
0.696621 0.18393 0.757864 -0.570589 -0.680527 0.459686 53 46 34
0.541872 0.126434 1.03417 0.10869 -0.863516 0.492469 210 172 85
0.541845 0.126549 1.03431 0.084713 -0.869244 0.487071 211 172 87
0.528168 0.127398 1.03386 0.0828172 -0.860662 0.502397 200 167 88
0.523796 0.127942 1.03282 -0.264254 -0.695464 0.668206 109 82 52
0.525868 0.128052 1.03506 0.00312866 -0.855554 0.517704 162 131 79
0.525337 0.128153 1.03516 -0.0191222 -0.855708 0.517106 138 109 66
0.478995 0.13609 1.01361 0.347155 -0.586084 0.732113 120 90 44
0.477726 0.136537 1.01519 0.0923463 -0.651221 0.753249 135 103 51
0.476079 0.135637 1.01478 -0.0830827 -0.690354 0.718685 186 151 77
0.475852 0.135266 1.01494 -0.0421131 -0.679013 0.732918 195 159 78
