ply
format ascii 1.0
element vertex 713
property float x
property float y
property float z
property float nx
property float ny
property float nz
property uchar diffuse_red
property uchar diffuse_green
property uchar diffuse_blue
end_header
-0.0613637 0.362093 0.865326 0.457566 -0.344921 -0.81955 254 254 254
-0.0590497 0.362338 0.867259 0.416162 0.100433 -0.903727 253 254 254
-0.0544062 0.363638 0.868618 0.543901 0.343289 -0.765718 235 234 230
-0.0524433 0.365163 0.867995 0.251277 0.321822 -0.912848 166 155 145
-0.0478736 0.363874 0.866202 0.248061 0.308904 -0.918174 159 145 133
-0.0457018 0.365609 0.870889 0.135927 0.115884 -0.983918 136 120 105
-0.0424506 0.365531 0.871163 0.86546 0.0126783 -0.500818 129 115 103
-0.0394506 0.366969 0.873039 0.168579 -0.902282 -0.396823 99 88 86
-0.0273202 0.393129 0.92631 0.564456 -0.656233 -0.500747 85 84 86
-0.0234412 0.392556 0.927707 0.619503 -0.564501 -0.545485 87 87 90
-0.0198862 0.394002 0.925718 0.0958804 -0.986758 -0.130824 115 114 114
-0.0125248 0.39614 0.934194 0.142293 -0.97513 -0.169925 121 122 125
-0.00465171 0.404413 0.947116 0.304779 -0.257855 -0.916854 143 139 135
0.00460713 0.404053 0.9495 0.360597 0.0562198 -0.931026 149 146 142
0.0440322 0.423984 0.983315 0.64989 -0.127258 -0.749299 182 171 164
0.0471526 0.424008 0.98432 0.290012 -0.159762 -0.943594 173 161 155
0.0490659 0.424688 0.986232 0.265326 -0.0231043 -0.963882 167 156 150
0.0494119 0.42488 0.986437 0.301043 -0.0714304 -0.950932 166 155 149
0.0566964 0.432563 1.0017 0.661583 -0.665026 -0.346481 180 164 157
0.0734211 0.443935 1.02532 0.822919 -0.0975788 -0.559716 167 157 150
-0.350223 0.397995 1.00131 -0.409829 -0.781948 -0.469677 42 47 55
-0.346412 0.398781 1.00093 -0.195502 -0.947218 -0.25408 39 44 48
-0.249538 0.346958 0.865452 -0.0345554 -0.985544 -0.165858 149 157 165
-0.246105 0.345995 0.860281 -0.0565058 -0.983504 -0.171837 155 162 170
-0.24611 0.346034 0.860444 -0.0347387 -0.985797 -0.164313 155 162 170
-0.236603 0.346925 0.862825 -0.0326229 -0.986326 -0.161547 178 192 204
-0.231365 0.348389 0.862891 -0.0336847 -0.986646 -0.15936 189 205 220
-0.232769 0.346923 0.860395 -0.0545223 -0.984415 -0.167197 188 203 217
-0.193845 0.36487 0.891038 -0.469492 -0.786095 -0.402033 168 182 184
-0.190557 0.364299 0.888345 -0.540188 -0.10022 -0.835556 145 155 158
-0.102111 0.358493 0.858199 -0.0147921 -0.675496 -0.737215 255 255 255
-0.0768775 0.364171 0.864691 0.546752 -0.211788 -0.810067 253 255 255
-0.0742618 0.364291 0.865508 0.575839 -0.345837 -0.740814 253 254 254
-0.0673668 0.363928 0.861413 0.174567 -0.387143 -0.905343 225 232 231
-0.0651055 0.365029 0.864745 0.328274 -0.239165 -0.913803 223 231 230
-0.0650678 0.364095 0.863146 0.712684 -0.538257 -0.449847 249 252 250
-0.0623153 0.364085 0.863508 0.843178 -0.372146 -0.388019 242 245 244
-0.0570308 0.366448 0.869771 0.252406 0.320568 -0.912977 179 177 171
-0.0579946 0.364718 0.866058 0.68663 0.341815 -0.64164 224 226 223
-0.0579914 0.36639 0.867678 0.476358 0.189835 -0.858514 176 177 170
-0.0532161 0.369187 0.871417 0.247478 0.317113 -0.915529 106 91 76
-0.0441509 0.368382 0.871433 0.822063 0.129051 -0.554579 97 85 76
-0.0424905 0.369328 0.871118 0.467953 0.172768 -0.866701 82 73 68
-0.0295126 0.393113 0.923731 0.597642 -0.637107 -0.486743 84 84 87
-0.0245201 0.393866 0.922878 0.0982744 -0.987206 -0.125567 110 107 108
-0.0182441 0.39396 0.91927 0.10153 -0.988196 -0.11472 126 126 126
-0.0140617 0.394675 0.921875 0.155021 -0.973518 -0.168022 130 131 130
-0.00745097 0.404222 0.945738 0.335081 -0.0144288 -0.942079 135 139 137
-0.00297271 0.406926 0.946845 0.683574 -0.585954 -0.435183 149 144 139
-0.00314818 0.407271 0.94756 0.69218 -0.581501 -0.427485 149 144 139
0.00334009 0.406368 0.947554 0.470342 -0.309843 -0.826303 151 149 143
0.00436465 0.407798 0.950703 0.357695 0.0499661 -0.932501 151 149 144
0.045809 0.426782 0.983318 0.0344999 -0.412497 -0.910306 169 159 152
0.0451334 0.426575 0.9814 0.114561 -0.828167 -0.548648 170 160 152
0.0481834 0.427655 0.985461 0.168628 -0.108441 -0.979696 165 156 147
0.0482327 0.427234 0.985098 0.19335 -0.196189 -0.961315 165 156 147
0.0481478 0.427232 0.984908 0.233111 -0.207541 -0.950045 166 156 148
-0.345185 0.401193 0.998935 -0.201674 -0.946097 -0.253432 37 43 45
-0.242821 0.34499 0.855346 -0.0565066 -0.983613 -0.171209 160 169 179
-0.242694 0.345104 0.85544 -0.034757 -0.986059 -0.162727 160 169 179
-0.237821 0.34636 0.855492 -0.0550633 -0.983908 -0.169979 168 181 192
-0.237555 0.346547 0.855515 -0.0334935 -0.986584 -0.159782 168 182 193
-0.232756 0.347764 0.855676 -0.050662 -0.985247 -0.16347 177 193 203
-0.232356 0.347999 0.855573 -0.033468 -0.986921 -0.15769 177 193 203
-0.22479 0.348021 0.85725 -0.0504569 -0.985452 -0.162293 206 224 240
-0.138283 0.367864 0.881221 -0.223641 -0.659836 -0.717358 243 246 244
-0.105992 0.359283 0.857583 0.281033 -0.626844 -0.726696 254 255 255
-0.10585 0.358945 0.854905 0.373103 -0.62976 -0.68132 254 255 254
-0.101005 0.36046 0.858315 0.232484 -0.651479 -0.722168 254 255 254
-0.0955625 0.360675 0.859103 0.193638 -0.89399 -0.404087 254 255 254
-0.0893733 0.364604 0.862267 0.200445 -0.97396 -0.105943 254 254 254
-0.0892388 0.365281 0.864222 0.338258 -0.931178 -0.135971 255 255 254
-0.0893363 0.36495 0.863141 0.407896 -0.906413 -0.109711 254 254 254
-0.0846669 0.364262 0.862759 0.197402 -0.971173 -0.133628 254 255 254
-0.0753444 0.366419 0.864144 0.190039 -0.343219 -0.919829 222 235 235
-0.0661128 0.367392 0.863248 0.49183 0.227098 -0.840554 163 173 166
-0.0634297 0.368679 0.866156 0.585084 -0.121929 -0.801754 151 160 156
-0.0594823 0.369207 0.867072 0.464478 0.0801111 -0.881954 115 121 113
-0.0583256 0.369942 0.869543 0.553185 0.259713 -0.79154 91 89 75
-0.0341118 0.39394 0.918054 0.167202 -0.980053 -0.107417 91 92 94
-0.030577 0.39592 0.921973 0.0431338 -0.969633 -0.240732 107 107 107
-0.0106582 0.394928 0.916981 0.452488 -0.846591 -0.280245 134 138 137
-0.0114244 0.392753 0.91143 0.373803 -0.828724 -0.416519 132 136 136
-0.00510975 0.392383 0.907015 0.148793 -0.978647 -0.141813 140 141 139
0.00296607 0.40884 0.945831 0.127676 -0.927988 -0.350053 149 152 147
-0.339179 0.39824 0.985841 -0.480324 -0.705385 -0.521269 43 50 56
-0.241979 0.346985 0.853135 -0.057389 -0.984173 -0.167658 154 167 172
-0.241851 0.347084 0.853067 -0.0387248 -0.986197 -0.160987 154 167 172
-0.236994 0.348328 0.853228 -0.0595561 -0.984348 -0.16587 162 178 183
-0.236745 0.348499 0.853119 -0.0391115 -0.986326 -0.160099 162 178 183
-0.23187 0.349765 0.853377 -0.0566134 -0.985124 -0.162253 169 187 192
-0.231473 0.349986 0.853135 -0.0343101 -0.98743 -0.154288 168 187 192
-0.228555 0.34791 0.853137 -0.0504866 -0.985424 -0.162455 185 202 215
-0.22804 0.348215 0.852996 -0.0408517 -0.986652 -0.157635 185 202 215
-0.223729 0.34844 0.85052 -0.0428305 -0.986755 -0.15646 196 215 230
-0.224319 0.348111 0.850712 -0.0544392 -0.985517 -0.160598 196 214 229
-0.220074 0.348275 0.848248 -0.0606719 -0.985191 -0.160369 205 227 241
-0.21887 0.347817 0.846061 -0.0530362 -0.986149 -0.157151 206 230 243
-0.138127 0.367264 0.873284 -0.439047 -0.830403 -0.343029 203 212 206
-0.104687 0.361627 0.857535 0.428171 -0.42963 -0.795039 254 255 254
-0.0981837 0.363007 0.857044 0.853621 -0.0587834 -0.517568 254 255 253
-0.0956201 0.364927 0.860731 0.1997 -0.969661 -0.140987 255 255 254
-0.0889801 0.365157 0.857189 0.147583 -0.982089 -0.117137 250 251 251
-0.0880787 0.364772 0.856744 0.127093 -0.977803 -0.166581 251 252 251
-0.0854469 0.365291 0.859603 0.825699 -0.422616 -0.373652 250 252 251
-0.0771281 0.366359 0.858495 0.0537639 -0.944734 -0.3234 180 194 195
-0.0724616 0.367805 0.862192 0.372273 0.366835 -0.852552 174 185 179
-0.0694348 0.367198 0.862522 0.553776 -0.407325 -0.726236 192 203 200
-0.0641145 0.368654 0.865191 0.304321 -0.266536 -0.91452 135 144 138
-0.0615634 0.371748 0.866956 0.454876 0.128901 -0.881176 93 94 88
-0.0559657 0.387941 0.902386 0.164931 -0.978566 -0.123312 55 46 48
-0.0405364 0.39312 0.910151 0.109349 -0.987372 -0.114624 93 90 91
-0.0381119 0.394176 0.915493 0.0610172 -0.977681 -0.201037 93 90 91
-0.0330671 0.394943 0.912213 0.331762 -0.840141 -0.429065 110 112 113
-0.00811211 0.391712 0.904207 0.146648 -0.97408 -0.17223 138 140 138
-0.242823 0.346606 0.845937 -0.0574796 -0.984519 -0.165585 148 162 167
-0.242695 0.346694 0.845739 -0.0400866 -0.986395 -0.159428 148 162 167
-0.237631 0.348095 0.845786 -0.0430786 -0.986539 -0.157751 155 172 176
-0.23613 0.350315 0.850996 -0.0602641 -0.98477 -0.163085 157 175 179
-0.235876 0.350486 0.850761 -0.040253 -0.98686 -0.156484 157 175 179
-0.229047 0.349438 0.850017 -0.0483545 -0.986285 -0.157809 172 191 198
-0.228755 0.348482 0.847916 0.00219094 -0.986824 -0.161783 174 193 199
-0.225711 0.348413 0.845024 -0.0462573 -0.986609 -0.156405 177 198 207
-0.224296 0.350081 0.847609 -0.0508223 -0.986467 -0.155882 177 199 209
-0.221983 0.349424 0.844484 -0.0561436 -0.986052 -0.15668 181 206 215
-0.22007 0.349053 0.843411 -0.0631656 -0.985227 -0.15918 187 213 224
-0.215061 0.348707 0.845296 -0.0533344 -0.986452 -0.155141 210 236 247
-0.215884 0.348464 0.845914 -0.0579083 -0.98584 -0.15737 210 235 247
-0.114869 0.363057 0.853322 -0.0202031 -0.742707 -0.669312 241 247 247
-0.105294 0.36376 0.855894 0.577777 -0.28234 -0.765805 253 254 253
-0.100577 0.365252 0.854865 0.201099 -0.96949 -0.140173 247 252 252
-0.0975793 0.366409 0.856866 0.201125 -0.969215 -0.142024 251 253 253
-0.0849087 0.366728 0.856691 0.471002 -0.733229 -0.490441 183 193 190
-0.0853243 0.366959 0.856504 0.436212 -0.756128 -0.487841 162 173 173
-0.0837196 0.366241 0.855183 0.429211 -0.841699 -0.327599 188 200 199
-0.0811693 0.367341 0.858424 0.184471 -0.925666 -0.330321 175 185 184
-0.0772389 0.367773 0.85517 0.184226 -0.9239 -0.335365 127 139 136
-0.0752933 0.36917 0.860811 0.252571 -0.919373 -0.301598 175 190 189
-0.0704255 0.36998 0.861604 0.41738 0.498026 -0.760108 140 151 144
-0.0659962 0.371463 0.864183 0.352746 0.251655 -0.901244 107 113 107
-0.0602727 0.387398 0.899478 0.0618501 -0.971267 -0.229815 55 45 44
-0.0497533 0.389371 0.897966 0.293024 -0.807562 -0.511841 76 75 75
-0.04225 0.387552 0.894508 -0.0430729 -0.87669 -0.479123 88 87 87
-0.0326328 0.391528 0.897722 0.657177 -0.719574 -0.224346 115 118 120
-0.0322224 0.392932 0.901768 0.648895 -0.713952 -0.263075 116 119 121
-0.0286814 0.394392 0.906221 0.152702 -0.971831 -0.17952 126 126 125
-0.0305707 0.394733 0.904616 0.155486 -0.977499 -0.142545 122 125 126
-0.0286814 0.394392 0.906221 0.152702 -0.971831 -0.17952 126 126 125
-0.0286814 0.394392 0.906221 0.152702 -0.971831 -0.17952 126 126 125
-0.00250707 0.410216 0.934249 0.302376 -0.898173 -0.319146 153 153 146
-0.00422328 0.409003 0.930737 0.571268 -0.782576 -0.247442 150 149 143
-0.243531 0.346298 0.838493 -0.0366151 -0.987067 -0.156074 140 156 158
-0.243656 0.346225 0.838821 -0.0575613 -0.984842 -0.163624 140 156 158
-0.232114 0.349209 0.84495 -0.0414735 -0.986769 -0.156737 161 180 183
-0.227822 0.350546 0.845831 -0.0742442 -0.983718 -0.163669 166 185 191
-0.220081 0.350221 0.84509 -0.0502345 -0.986674 -0.154758 183 210 219
-0.0752979 0.37052 0.856797 0.172135 -0.955856 -0.238137 103 114 109
-0.0465559 0.390094 0.896168 -0.0386934 -0.864704 -0.500789 93 93 93
-1.44271 -0.638453 2.97471 -0.22819 0.35187 -0.907809 4 6 3
-1.50881 -0.636814 2.98433 0.964846 -0.253729 -0.0685091 1 3 0
-1.48637 -0.635302 2.98859 -0.0245 -0.42254 -0.906013 3 5 2
-1.46835 -0.635302 2.9881 -0.0245625 -0.422471 -0.906044 3 5 2
-1.46517 -0.631415 2.99083 -0.226329 0.237803 -0.944577 5 6 4
-1.44297 -0.630244 2.97839 -0.154615 -0.0579142 -0.986276 4 6 3
-1.43013 -0.631142 2.97905 0.0107765 -0.0453724 -0.998912 3 5 2
-1.50796 -0.625234 2.97442 0.741988 -0.611334 -0.275179 2 4 1
-1.49767 -0.6268 2.98532 0.39541 -0.741956 -0.541435 4 6 3
-1.4782 -0.621328 2.98249 -0.0254959 -0.422924 -0.905807 6 7 8
-1.47958 -0.631061 2.99219 -0.222551 0.158623 -0.96193 4 5 4
-1.48025 -0.630952 2.99321 -0.217319 0.172808 -0.960682 4 6 5
-1.45068 -0.619853 2.99068 -0.160043 0.014219 -0.987008 5 7 4
-1.5759 -0.618215 2.91074 0.601284 0.797433 -0.0505846 3 5 2
-1.49743 -0.615903 2.97555 0.501756 -0.603435 -0.619764 4 7 6
-1.48691 -0.617409 2.98621 0.452975 -0.752832 -0.477553 7 8 10
-1.47117 -0.617511 2.99383 -0.160622 0.216648 -0.962946 6 8 11
-1.45082 -0.616624 2.98665 -0.21186 0.375453 -0.902303 5 7 6
-1.57632 -0.610793 2.92304 0.991641 0.128743 -0.00856306 4 6 3
-1.57148 -0.616118 2.9338 0.977217 0.201015 -0.0681228 4 6 3
-1.51642 -0.61452 2.96852 0.487365 -0.74568 -0.454353 2 4 2
-1.49901 -0.603868 2.96282 0.317176 -0.718958 -0.618465 3 5 3
-1.48655 -0.606474 2.97629 0.624332 -0.692389 -0.361672 7 11 14
-1.48379 -0.606238 2.97399 0.504121 -0.74036 -0.444667 7 10 14
-1.47897 -0.608753 2.98336 0.999027 -0.0431127 -0.00929566 8 10 15
-1.46 -0.602834 2.99453 -0.216838 0.295234 -0.930493 7 10 15
-1.45265 -0.605118 2.99924 -0.231312 0.278135 -0.932274 5 7 8
0.0498945 -0.178084 1.0612 0.508728 -0.677825 -0.5308 22 24 30
-1.57517 -0.603119 2.93007 0.890674 0.440733 -0.111599 4 6 3
-1.57118 -0.608854 2.94437 0.954169 0.0597888 -0.293234 2 4 1
-1.56499 -0.59994 2.94891 0.974751 -0.220657 -0.0342193 3 5 2
-1.50841 -0.598186 2.95799 0.15579 0.20338 -0.966626 3 5 2
-1.48925 -0.597466 2.96769 0.930547 -0.350298 -0.106646 6 10 12
-1.47033 -0.598299 2.98318 0.998728 -0.0445217 -0.0236704 8 11 17
0.0552795 -0.174472 1.06094 0.549114 -0.62827 -0.551136 41 40 46
-1.56914 -0.594974 2.94125 0.950612 -0.303924 -0.0629843 3 5 2
-1.56239 -0.596668 2.9452 0.970726 0.234719 0.0509721 3 5 2
-1.49091 -0.585683 2.94969 0.968546 0.245855 0.0384071 4 7 5
-1.49624 -0.592488 2.97582 0.971195 0.00719042 -0.238178 6 11 12
-1.48027 -0.591205 2.97616 -0.072659 0.761874 -0.643637 8 13 16
-1.466 -0.589587 2.9888 0.69007 0.722502 -0.0423644 10 15 23
0.0492925 -0.169044 1.04322 0.792781 -0.202665 -0.574826 68 53 49
0.0567368 -0.168381 1.04929 0.707457 -0.531853 -0.465443 69 59 56
-1.58927 -0.5722 2.84675 0.975623 0.205826 0.0761277 2 4 0
-1.59802 -0.580832 2.90596 0.849738 -0.504037 -0.154568 1 3 0
-1.55303 -0.58287 2.95059 0.969134 -0.226095 -0.0982929 6 7 6
-1.49017 -0.583662 2.97559 0.825016 0.454616 -0.335669 11 16 20
-1.48167 -0.581458 2.99055 0.11131 0.76536 -0.633904 12 18 23
-1.47432 -0.582475 2.98704 0.292075 0.533854 -0.793532 11 18 24
-1.46898 -0.581419 2.99877 0.280379 0.648084 -0.708079 17 24 31
0.0496547 -0.166206 1.04056 0.698861 0.560304 -0.444582 85 66 54
0.0729088 -0.166032 1.06659 0.493962 0.0104744 -0.869421 39 43 48
-1.47812 -0.532725 2.67043 0.140517 0.893332 -0.426863 1 2 0
-1.56373 -0.557566 2.8158 0.969183 0.234449 0.0756203 3 5 2
-1.56028 -0.556439 2.81177 0.96344 0.25744 0.0742097 3 5 2
-1.58941 -0.564835 2.83167 0.962117 0.272605 -0.00426136 2 4 1
-1.57433 -0.568413 2.84889 0.968055 0.239701 0.0735748 1 4 1
-1.57268 -0.568335 2.86625 0.988606 0.13671 0.0629974 2 4 1
-1.59913 -0.576258 2.92536 0.877009 -0.450459 -0.167161 2 4 1
-1.57741 -0.574439 2.92829 0.889505 -0.0326694 -0.455755 6 9 10
-1.56697 -0.573868 2.94284 0.860803 0.0819586 -0.502295 7 11 10
-1.57255 -0.580037 2.93623 0.889507 -0.0326838 -0.45575 4 7 6
-1.56123 -0.578918 2.9496 0.964545 0.181478 -0.191622 7 9 7
-1.47655 -0.572986 3.00786 0.673508 -0.322964 -0.664892 67 90 81
-1.46808 -0.572044 3.00564 0.676576 0.167032 -0.717178 73 95 88
-1.46001 -0.575314 3.01103 0.667839 0.137698 -0.731458 29 44 36
0.0186328 -0.164944 1.0313 0.209437 0.722212 -0.659202 14 14 12
0.076252 -0.159809 1.04511 0.372426 0.869245 -0.325133 156 157 148
-1.50322 -0.527856 2.68852 0.536936 0.771811 -0.340599 1 3 2
-1.49704 -0.526461 2.68246 0.373405 0.8987 -0.230016 1 4 2
-1.57622 -0.544397 2.78406 0.961549 0.269283 0.0539575 4 6 4
-1.56965 -0.551291 2.81125 0.976438 0.211516 0.0427726 4 6 3
-1.56932 -0.551194 2.81076 0.971987 0.233036 0.0305929 4 6 3
-1.57121 -0.551918 2.83749 0.956207 0.290064 0.0391223 8 11 5
-1.57259 -0.552327 2.8396 0.963109 0.265364 0.044748 8 11 5
-1.57833 -0.561823 2.86388 0.959963 0.271371 0.0694839 3 5 4
-1.58932 -0.563633 2.90159 0.550393 -0.67568 -0.490432 5 10 8
-1.56588 -0.558229 2.9098 0.489988 -0.755899 -0.434198 80 101 97
-1.57412 -0.569392 2.9368 0.499733 0.838053 -0.218938 15 23 19
-1.55831 -0.568705 2.94393 0.700885 -0.613964 -0.363056 25 36 29
-1.55277 -0.568862 2.95131 0.963379 0.264885 0.0416803 30 42 35
-1.5592 -0.563227 2.95444 0.564848 -0.628709 -0.534482 124 151 153
0.0405171 -0.162751 1.03754 0.436222 -0.647375 -0.624993 163 139 122
0.0575031 -0.159623 1.04488 0.47131 0.828877 -0.301382 246 241 234
0.0683887 -0.158691 1.04475 0.859831 -0.307928 -0.407273 232 231 226
-1.57733 -0.537066 2.77114 0.95409 0.293046 0.0619395 14 22 17
-1.58647 -0.541493 2.80583 0.902099 0.383391 -0.198062 29 41 37
-1.57911 -0.546126 2.81146 0.916928 0.390905 -0.0802312 17 23 19
-1.58328 -0.547773 2.84226 0.987974 0.144183 0.0558377 38 51 42
-1.56961 -0.543721 2.84391 0.979073 0.19424 0.0607216 101 125 123
-1.56987 -0.544148 2.84566 0.984232 0.167271 0.0575069 99 123 122
-1.58503 -0.556132 2.88195 0.988343 0.141208 0.056915 13 25 19
-1.57059 -0.545948 2.88615 0.692304 -0.548045 -0.469427 153 189 221
-1.57563 -0.547017 2.8911 0.652696 -0.610681 -0.448394 153 189 221
-1.58224 -0.554907 2.90467 0.356139 -0.734038 -0.578233 114 142 147
-1.58599 -0.558349 2.91054 0.630102 -0.701536 -0.332894 84 107 104
-1.55124 -0.550048 2.89951 0.544706 -0.73903 -0.396395 151 183 198
-1.57127 -0.555114 2.91579 0.343102 -0.653282 -0.67491 133 164 174
-1.55064 -0.555794 2.92191 0.490088 -0.75574 -0.434362 140 168 175
-1.54136 -0.552656 2.92003 0.288033 -0.578143 -0.763405 161 194 205
0.0297104 -0.159916 1.03779 0.469824 0.422597 -0.775034 241 232 224
0.0549797 -0.157084 1.04558 0.659504 0.693874 -0.289124 255 254 254
-1.57691 -0.53811 2.81865 0.987093 0.160034 0.00602959 137 162 164
-1.57033 -0.537136 2.85877 0.970611 0.230564 0.0689495 147 189 231
-1.57203 -0.536417 2.85771 0.985526 0.15644 0.065312 144 187 229
-1.5722 -0.546305 2.88825 0.701162 -0.528998 -0.47805 153 189 222
-1.54257 -0.538071 2.87931 0.800314 -0.439075 -0.408301 176 218 249
-1.54229 -0.539916 2.88069 0.696401 -0.51282 -0.502037 173 215 247
-1.54212 -0.539881 2.88055 0.696693 -0.512633 -0.501824 173 215 247
-1.54319 -0.539995 2.8818 0.6999 -0.496847 -0.513111 174 215 248
-1.53744 -0.534977 2.89151 -0.12559 -0.17359 -0.976777 165 215 238
-1.52648 -0.536638 2.88948 0.863091 -0.312596 -0.396683 176 225 244
-1.49612 -0.52804 2.88013 0.260211 -0.170031 -0.950463 116 175 193
0.0403469 -0.154884 1.0357 0.787311 -0.237647 -0.568916 253 254 251
0.0492774 -0.156048 1.0414 0.915019 -0.152363 -0.373531 248 244 238
0.0546665 -0.154792 1.04662 0.710829 0.643272 -0.28447 255 255 254
-1.54113 -0.522657 2.84898 0.801247 -0.566098 -0.193742 179 223 238
-1.5256 -0.519284 2.83933 0.368454 -0.760144 -0.535185 180 227 241
-1.53952 -0.529242 2.86559 -0.115091 -0.188337 -0.975338 162 209 234
-1.52378 -0.523975 2.86885 0.673841 -0.674824 -0.300918 179 226 242
-1.49634 -0.519735 2.86747 0.629863 -0.147017 -0.762665 189 239 248
0.0421896 -0.153925 1.03971 0.737533 0.617179 -0.274108 254 251 248
0.0752741 -0.15063 1.04039 0.448694 -0.376915 -0.810314 254 254 254
-1.56193 -0.518077 2.83024 0.368398 -0.0632142 -0.927517 191 238 252
-1.55201 -0.518175 2.83477 0.886356 -0.246205 -0.392117 192 237 250
-1.53667 -0.513832 2.83321 0.585976 -0.727847 -0.356189 192 238 253
-1.53119 -0.516116 2.86049 0.928584 -0.261087 -0.263753 191 240 253
-1.4935 -0.509518 2.86707 0.616222 -0.141487 -0.774759 191 242 253
-1.47638 -0.513766 2.86298 0.580587 0.0213767 -0.813918 192 243 251
0.074276 -0.148312 1.04293 0.332937 -0.259984 -0.9064 255 255 254
0.0767354 -0.14649 1.04679 0.859174 0.294111 -0.41871 255 255 254
-1.53145 -0.509002 2.84895 0.929877 -0.260064 -0.260186 188 239 253
0.0754003 -0.145224 1.04823 0.827876 0.14199 -0.542642 251 253 250
0.0800865 -0.145944 1.05044 0.888676 0.27672 -0.365625 250 252 251
0.0745589 -0.142233 1.04834 0.869496 -0.28964 -0.400108 248 246 241
0.0832497 -0.129599 1.05257 0.586734 0.00263269 -0.809776 235 235 232
0.100246 -0.127116 1.04966 0.214468 -0.15923 -0.963665 95 93 91
-0.0362575 -0.15239 1.19701 -0.212162 -0.0110716 -0.977172 93 73 64
0.0865245 -0.125303 1.05463 0.722939 -0.339363 -0.601824 194 194 191
0.102675 -0.118138 1.04484 0.13911 -0.0917021 -0.986022 230 229 225
0.12123 -0.116166 1.04412 -0.212108 0.0305367 -0.976769 7 7 5
0.120863 -0.112921 1.04339 -0.211788 0.0326393 -0.97677 10 8 5
0.121355 -0.112804 1.04312 -0.211844 0.0326637 -0.976758 10 8 5
0.107389 -0.112664 1.0458 -0.183267 -0.0921156 -0.978738 166 166 162
0.10905 -0.112875 1.04648 -0.195317 -0.0446653 -0.979722 135 136 134
0.123676 -0.109645 1.04253 0.0808135 0.277624 -0.957285 70 65 57
0.110764 -0.109825 1.04599 -0.195294 -0.0449293 -0.979715 161 159 155
0.117159 -0.109696 1.04362 -0.124869 0.0929545 -0.987809 80 76 69
0.117303 -0.109625 1.04367 -0.150943 0.101669 -0.9833 79 75 69
0.117161 -0.109696 1.04362 -0.143918 0.103336 -0.98418 80 76 69
0.117302 -0.109626 1.04367 -0.140465 0.0962765 -0.985394 79 75 69
0.119605 -0.109731 1.04362 -0.164293 0.0629692 -0.9844 70 67 60
0.119428 -0.109806 1.04361 -0.170529 0.0576478 -0.983665 71 68 61
0.115906 -0.10648 1.04391 -0.137668 0.266637 -0.953914 163 161 156
0.121098 -0.106752 1.04358 0.0131825 0.368261 -0.929629 64 60 54
0.121331 -0.106662 1.04358 0.100234 0.447593 -0.888602 64 60 54
0.117345 -0.102503 1.04547 0.328603 0.0880233 -0.940357 158 157 153
0.123619 -0.103542 1.04485 0.141127 0.256054 -0.956305 28 23 20
0.0954989 -0.106578 1.20422 -0.30366 0.054656 -0.951211 208 200 193
0.0985877 -0.102238 1.20151 -0.198761 -0.368766 -0.908023 126 118 108
0.104144 -0.0849402 1.18972 0.267005 0.158635 -0.950549 169 154 144
0.114577 -0.0396064 1.16276 0.138085 0.0185901 -0.990246 245 245 239
0.112858 -0.01754 1.17047 0.50024 0.184313 -0.846043 254 255 251
0.109533 0.0370958 1.17581 0.895753 -0.221488 -0.385447 239 234 226
0.115258 0.0357376 1.18178 0.529177 0.627279 -0.571396 127 124 113
0.111964 0.0402738 1.17376 0.885784 -0.141959 -0.441853 211 207 199
0.11186 0.0386123 1.17881 0.759939 -0.37488 -0.530997 180 178 170
0.11523 0.0393871 1.18067 0.636052 -0.218517 -0.74006 119 118 109
0.11416 0.0401296 1.18078 0.65793 -0.168521 -0.733981 128 127 117
0.117104 0.0397906 1.18224 0.596332 0.0344084 -0.802 116 113 108
0.11614 0.0403335 1.18342 0.892829 0.0878017 -0.441754 119 116 111
0.112087 0.0434552 1.16935 0.864087 -0.301571 -0.403 226 220 211
0.110977 0.0415104 1.17291 0.779868 -0.492576 -0.386232 221 216 208
0.11278 0.0434373 1.17149 0.886077 -0.147058 -0.439592 205 199 189
0.113755 0.0415948 1.17406 0.895563 -0.210961 -0.391743 164 160 150
0.105323 0.0456053 1.16612 0.464575 -0.380719 -0.799515 244 237 228
0.105558 0.0456485 1.1661 0.496579 -0.352881 -0.793023 244 237 228
0.107452 0.0457103 1.16869 0.833712 -0.331372 -0.441721 243 237 229
0.107392 0.045661 1.16854 0.824536 -0.330676 -0.459124 243 237 230
0.113455 0.0466036 1.1693 0.891652 -0.112288 -0.438574 193 186 176
0.114335 0.0448774 1.1732 0.885668 -0.00246781 -0.464312 159 153 142
0.114484 0.0447848 1.17248 0.854871 -0.0741075 -0.51352 160 154 144
0.115909 0.0463991 1.17356 0.911452 -0.0533701 -0.407929 135 130 121
0.119267 0.04612 1.17284 0.888501 0.06517 -0.454224 133 127 121
0.0960621 0.0501377 1.13435 0.862821 -0.300359 -0.406601 239 235 227
0.1026 0.0480629 1.15132 0.611965 0.554325 -0.564113 246 243 236
0.10261 0.0480158 1.16114 0.798552 0.192088 -0.570453 236 228 216
0.106773 0.0486653 1.1652 0.758913 0.157343 -0.631898 216 208 198
0.106722 0.0486214 1.16517 0.754036 0.13926 -0.6419 216 208 198
0.108186 0.0474129 1.16754 0.88903 -0.0648744 -0.453231 244 238 229
0.108034 0.0475029 1.1677 0.905198 -0.110104 -0.41048 243 238 228
0.109856 0.0496374 1.1702 0.871164 0.264212 -0.413842 234 228 221
0.109284 0.0489708 1.17022 0.848484 0.318058 -0.422983 236 230 221
0.114764 0.0479848 1.17246 0.852462 -0.147201 -0.501638 144 138 128
0.117509 0.0478547 1.17345 0.886983 0.0506575 -0.459016 130 124 116
0.0936461 0.0519919 1.13326 0.88722 -0.11918 -0.445686 243 238 231
0.0971468 0.0532836 1.13378 0.91461 -0.164761 -0.369245 238 232 226
0.0955212 0.0513702 1.14053 0.782062 -0.291146 -0.55101 250 250 247
0.102616 0.0512125 1.16089 0.702483 0.0514179 -0.70984 244 241 234
0.106125 0.0517931 1.16503 0.788936 0.204175 -0.579563 176 171 163
0.108391 0.0506111 1.16701 0.797207 0.328257 -0.506664 236 232 224
0.10808 0.0505016 1.16731 0.894137 -0.204496 -0.398371 234 230 222
0.108274 0.050565 1.16727 0.904407 -0.146337 -0.40079 236 231 224
0.109078 0.0527773 1.16963 0.846322 0.32502 -0.422021 223 222 221
0.109599 0.05189 1.16998 0.899879 -0.209824 -0.382351 234 233 229
0.108563 0.0517145 1.17359 0.843897 0.333061 -0.420605 226 223 218
0.0955038 0.0550307 1.13643 0.248128 0.527578 -0.812462 203 192 184
0.0954605 0.0555022 1.14286 0.828518 0.375787 -0.415141 174 163 151
0.0974316 0.0543591 1.15088 0.789281 0.44279 -0.425408 249 248 247
0.102357 0.0543438 1.16278 0.783793 -0.496217 -0.373414 198 195 192
0.10832 0.053693 1.16623 0.888183 -0.259876 -0.37894 186 183 184
0.107819 0.0560962 1.16963 0.865565 0.280933 -0.414577 91 102 136
0.107314 0.0550412 1.17357 0.84795 0.324207 -0.419369 150 156 178
0.0908204 0.0595349 1.12945 0.152238 0.284974 -0.946368 124 116 147
0.0940669 0.0587522 1.14277 0.858047 -0.362917 -0.363383 124 109 105
0.0969014 0.057157 1.15675 0.692607 0.29414 -0.658618 170 167 172
0.100331 0.0566371 1.16181 0.682269 -0.251454 -0.686499 174 175 181
0.109321 0.0569904 1.16619 0.894831 -0.228736 -0.383349 50 64 109
0.106111 0.0583789 1.17354 0.845551 0.329252 -0.420283 39 63 129
0.0936807 0.0608579 1.14183 0.827384 -0.430503 -0.360698 105 100 141
0.0934474 0.0609191 1.14202 0.854251 -0.374188 -0.360885 105 100 141
0.096057 0.0597809 1.14338 0.879013 -0.307484 -0.364404 98 92 110
0.102791 0.0594037 1.15685 0.668928 -0.640377 -0.37743 63 73 100
0.109773 0.131522 0.994483 0.6368 -0.456077 -0.621675 126 222 252
0.112484 0.13179 0.996562 0.477292 -0.505085 -0.719084 112 210 251
0.114699 0.134364 0.995577 0.218278 -0.352805 -0.909881 93 190 250
0.104924 0.13711 0.989815 0.780319 -0.312592 -0.541653 89 187 244
0.10493 0.136983 0.988834 0.760535 -0.234527 -0.605461 93 192 244
0.106332 0.13609 0.991162 0.51972 0.0967441 -0.848841 94 194 246
0.110756 0.136394 0.991398 0.79501 -0.517926 -0.315771 81 176 246
0.113226 0.137184 0.994166 0.615813 -0.474382 -0.629076 80 170 248
0.104067 0.139076 0.987673 0.889992 0.20003 -0.409759 96 191 247
0.104117 0.143653 0.98104 0.321559 -0.713722 -0.622255 97 194 251
0.108499 0.143007 0.982737 0.828042 -0.240672 -0.506383 99 193 250
0.102012 0.151988 0.97446 0.546461 -0.758108 -0.355882 93 193 247
0.102482 0.150007 0.976865 0.472093 -0.766784 -0.434937 108 209 245
0.104368 0.154295 0.974618 0.60532 -0.687529 -0.401113 76 173 250
0.107657 0.152083 0.978795 0.208703 -0.529942 -0.821952 83 178 248
0.119675 0.15778 0.983362 0.750408 -0.585504 -0.306714 61 136 247
0.122028 0.157764 0.986217 0.547712 -0.698799 -0.4601 63 139 248
0.124533 0.157836 0.988676 0.596683 -0.645219 -0.477138 58 133 248
0.127998 0.157173 0.992516 0.891087 -0.127658 -0.435508 34 105 239
0.12166 0.159127 0.974492 0.61512 0.176384 -0.76845 51 128 250
0.120191 0.15989 0.979993 0.326422 -0.677001 -0.659635 43 116 248
0.122183 0.160393 0.982693 0.674476 -0.660147 -0.330586 42 109 242
0.126293 0.16072 0.988343 0.645697 -0.29559 -0.704061 39 105 231
0.127111 0.159085 0.990616 0.845287 -0.170408 -0.506411 48 119 247
0.128662 0.159967 0.99297 0.80785 -0.363156 -0.464214 26 89 227
0.120562 0.162252 0.977179 0.570916 0.317198 -0.757258 38 104 242
0.121608 0.162157 0.980621 0.206892 -0.689808 -0.693801 32 93 233
0.125039 0.163741 0.989808 0.59998 0.326918 -0.73017 29 83 209
0.127809 0.161888 0.990509 0.824834 -0.14509 -0.546441 20 78 209
0.129437 0.163127 0.996088 0.783815 0.192978 -0.590249 26 77 204
-0.150061 0.199926 0.885882 0.424125 0.131763 -0.895967 18 11 9
-0.151709 0.199538 0.88368 0.410135 0.148438 -0.899864 16 10 8
0.094195 0.168291 0.961537 0.217373 -0.554481 -0.803306 122 228 249
0.0975183 0.167637 0.96295 0.600518 -0.678063 -0.423803 117 217 250
0.113329 0.164521 0.974099 0.679315 -0.67566 -0.286381 36 110 249
0.124452 0.165914 0.981699 0.792143 -0.3033 -0.52964 23 73 198
0.127378 0.164379 0.997369 0.462619 0.553474 -0.692568 23 74 197
0.129224 0.164499 0.999475 0.756399 0.423753 -0.498291 25 77 202
-0.149007 0.203068 0.885473 0.460803 0.368929 -0.807188 17 11 9
-0.150324 0.201948 0.886437 0.770021 -0.578916 -0.268187 17 11 9
-0.150015 0.203412 0.891063 0.675437 -0.724164 -0.139183 21 15 13
-0.140705 0.202046 0.894582 0.68634 -0.703043 -0.186194 29 22 17
0.100013 0.170223 0.962041 0.753881 -0.585008 -0.299048 78 175 247
0.112284 0.167262 0.972731 0.258681 -0.213798 -0.942006 47 117 250
0.124284 0.167937 0.9787 0.681748 -0.423617 -0.596464 18 60 180
0.125703 0.168288 0.981514 0.799272 -0.194814 -0.568517 20 62 178
0.126142 0.166709 0.984108 0.903316 0.100216 -0.417106 21 70 191
-0.1509 0.206313 0.884005 0.698529 0.0963207 -0.70907 17 14 12
-0.140781 0.204688 0.893363 0.295977 -0.797474 -0.525769 59 61 53
0.100718 0.172178 0.958877 0.596078 -0.684262 -0.420092 79 167 244
0.101598 0.17215 0.959343 0.712705 -0.644111 -0.277797 74 162 244
0.103232 0.172452 0.962041 0.546764 -0.790135 -0.277013 65 150 245
0.108647 0.172089 0.968355 0.274135 0.0379527 -0.960942 42 122 249
0.125786 0.170917 0.980078 0.880828 0.182647 -0.436786 19 54 167
0.126555 0.169649 0.984869 0.917232 0.0119368 -0.398174 19 61 180
-0.12589 0.205987 0.885129 0.019502 -0.423461 -0.905705 217 221 215
-0.124046 0.203052 0.886531 0.216755 -0.380761 -0.89891 99 94 81
0.107015 0.173532 0.958032 0.781573 -0.556896 -0.281089 39 107 231
0.106271 0.173974 0.958273 0.539462 -0.798126 -0.268282 35 101 225
0.106399 0.174634 0.961438 0.695032 -0.665672 -0.271683 39 106 235
0.107884 0.17436 0.964586 0.85354 -0.426962 -0.298619 34 103 232
0.124344 0.172868 0.978367 0.837579 0.290966 -0.462386 20 55 165
0.12756 0.172286 0.984002 0.662189 0.270052 -0.698983 19 58 172
0.129815 0.17155 0.986648 0.678035 0.335965 -0.653756 26 67 188
-0.123391 0.208561 0.882455 0.0215231 -0.310846 -0.950217 249 251 247
-0.113443 0.205553 0.886691 0.619616 0.390319 -0.680975 232 237 232
0.0980337 0.177715 0.956524 0.76167 -0.535263 -0.365174 24 73 196
0.105688 0.175604 0.955989 0.271207 -0.906164 -0.32452 18 65 179
0.108287 0.176147 0.958303 0.687787 -0.673594 -0.270593 27 75 193
0.119825 0.175155 0.971629 0.790075 0.371282 -0.487783 20 57 165
0.1293 0.174704 0.985929 0.814443 0.169641 -0.554891 18 54 170
0.130823 0.176477 0.988081 0.908918 0.0560468 -0.413191 15 47 158
-0.116552 0.209183 0.886985 0.494539 0.484032 -0.721903 241 248 242
0.11078 0.177714 0.961778 0.612772 -0.74265 -0.27015 24 66 180
0.110784 0.179471 0.966198 0.807429 -0.118595 -0.577921 21 62 169
0.113605 0.178758 0.967226 0.861259 -0.406114 -0.305456 23 61 168
0.118664 0.180433 0.978843 0.380844 0.139623 -0.914037 25 51 147
0.121607 0.177447 0.980385 0.320642 0.263738 -0.909742 17 46 146
0.123087 0.179988 0.982001 0.505888 0.242297 -0.82787 26 56 157
0.126877 0.179381 0.983911 0.723003 0.0905993 -0.684878 24 60 171
0.128731 0.177763 0.985908 0.738991 -0.0111434 -0.673624 23 56 170
0.129579 0.179579 0.988791 0.472156 -0.374698 -0.797916 15 43 149
0.110937 0.182941 0.970509 0.436927 0.536796 -0.721765 27 61 162
0.117363 0.183049 0.974769 0.83155 0.302274 -0.465999 23 51 145
0.121658 0.182706 0.981782 0.441236 0.255085 -0.860374 32 64 164
0.124916 0.182459 0.983516 0.604988 0.265012 -0.750839 42 80 189
0.131113 0.182096 0.988952 0.44276 -0.000312313 -0.89664 14 41 139
0.111014 0.185178 0.973685 0.808866 0.212215 -0.548361 32 67 164
0.116768 0.184806 0.976184 0.772326 0.232201 -0.591265 25 57 150
0.117915 0.184223 0.980218 0.406812 -0.327133 -0.852929 30 56 151
0.123957 0.185245 0.983841 0.638969 0.314346 -0.702072 41 80 187
0.127749 0.184181 0.986174 0.742172 0.432325 -0.512128 17 52 149
0.100113 0.187402 0.955313 0.926135 0.0325941 -0.375781 57 102 206
0.111748 0.187971 0.974327 0.385031 -0.339049 -0.858368 55 100 199
0.116196 0.186182 0.974788 0.831061 0.303846 -0.465849 39 80 180
0.116939 0.188245 0.977325 0.819709 0.30368 -0.485649 42 91 192
0.118609 0.187162 0.979883 0.830457 0.287083 -0.477414 27 66 161
0.117988 0.186494 0.978481 0.873289 0.167035 -0.457674 28 66 162
0.12058 0.186025 0.981604 0.557104 0.0835489 -0.826229 37 71 170
0.12414 0.188212 0.986519 0.551794 0.605174 -0.573836 29 69 170
0.130902 0.18585 0.989749 0.377618 0.417538 -0.826478 24 48 145
0.133385 0.186107 0.992139 0.186601 -0.297849 -0.936198 24 54 158
0.136475 0.185653 0.994058 0.87933 -0.0812055 -0.469239 28 65 173
0.117565 0.190277 0.979873 0.828671 0.297497 -0.474131 36 86 192
0.135724 0.188739 0.993702 0.656876 0.377019 -0.65297 25 62 169
0.122903 0.192675 0.988549 0.879661 0.179835 -0.440291 29 67 167
0.115354 0.194517 0.973903 0.456973 -0.168957 -0.873286 29 66 167
0.125484 0.196224 0.984438 0.69654 0.478754 -0.534441 24 59 165
0.124965 0.194765 0.990626 0.763128 0.129503 -0.633139 67 112 217
0.135707 0.196094 0.999693 0.871023 0.0698004 -0.486257 33 73 174
0.119152 0.198016 0.978179 0.726669 -0.333328 -0.600703 48 98 200
0.121167 0.198101 0.981756 0.343352 -0.860785 -0.375711 27 67 169
0.127698 0.197997 0.987672 0.883999 0.157959 -0.439993 36 69 178
0.128652 0.197563 0.993975 0.317695 -0.0595321 -0.946322 29 72 182
0.13159 0.197278 0.994992 0.400993 0.36416 -0.840591 47 93 204
0.134448 0.197447 0.997343 0.891803 0.118526 -0.436622 51 99 206
0.138764 0.198357 1.00495 0.900518 -0.208558 -0.381538 28 55 152
-0.441825 0.343964 1.30183 0.140183 -0.525537 -0.839142 101 107 112
0.125155 0.2018 0.98536 0.710307 -0.620433 -0.332454 140 194 239
0.128192 0.200825 0.987749 0.892176 -0.159594 -0.422555 54 105 207
0.130432 0.200043 0.994548 0.576281 -0.336809 -0.744621 36 72 181
0.136527 0.199242 1.00137 0.734319 -0.221266 -0.641729 49 95 201
0.143125 0.202369 1.01828 0.850622 -0.406256 -0.333764 200 217 239
0.102134 0.205688 0.97347 0.714156 0.420525 -0.559589 254 255 254
0.102365 0.205266 0.973439 0.6556 0.368219 -0.659244 254 255 254
0.107143 0.206809 0.975754 0.804919 0.344683 -0.48301 254 255 253
0.111375 0.206307 0.974669 0.873225 0.208176 -0.440614 254 255 254
0.114407 0.205872 0.975905 0.887237 0.129004 -0.442908 254 254 254
0.11318 0.204631 0.975435 0.872873 0.207013 -0.441857 253 254 254
0.116048 0.205057 0.9794 0.764163 0.37454 -0.525142 253 254 251
0.115956 0.204107 0.97661 0.898982 0.122035 -0.420641 252 254 250
0.127214 0.202777 0.987074 0.859768 -0.194984 -0.471996 154 201 242
0.128048 0.204212 0.990504 0.808662 0.271298 -0.52198 180 217 249
0.128383 0.204839 0.991115 0.705875 0.391568 -0.590267 202 231 251
0.131249 0.202723 0.99714 0.679925 0.46319 -0.568469 41 87 198
0.134212 0.203224 1.00064 0.514798 0.52206 -0.680027 49 99 206
0.137334 0.202302 1.00263 0.677893 0.306909 -0.668033 76 129 225
0.138732 0.204557 1.01266 0.655505 0.0688227 -0.752048 96 141 217
0.144673 0.203105 1.01958 0.854525 -0.391036 -0.341873 246 251 251
0.120979 0.207224 0.980427 0.886682 0.113554 -0.448219 255 255 254
0.121641 0.206679 0.986258 0.840626 0.0627272 -0.537972 250 252 249
0.125644 0.205443 0.988414 0.695186 -0.626867 -0.351787 241 251 250
0.128978 0.205905 0.992056 0.850536 0.241435 -0.467224 236 250 254
0.130697 0.205537 0.995685 0.702662 0.456476 -0.545798 153 190 241
0.132236 0.207534 0.999532 0.680408 0.305132 -0.666288 190 215 245
0.146929 0.205036 1.01748 0.667152 -0.566147 -0.484135 254 254 254
0.121645 0.209331 0.984518 0.88945 0.144437 -0.433609 254 255 253
0.126195 0.20894 0.990593 0.856154 0.228651 -0.463377 254 255 252
0.128585 0.208829 0.995657 0.699331 0.466174 -0.541866 250 252 247
0.131162 0.209362 0.997855 0.914556 -0.175945 -0.364184 251 253 249
0.131058 0.210989 1.00011 0.519124 -0.117357 -0.846604 249 249 245
0.137177 0.208851 1.0101 0.297191 -0.527381 -0.795957 225 240 247
0.149207 0.206886 1.01509 0.681955 -0.623232 -0.38278 255 255 254
0.13845 0.212003 0.998501 0.624991 -0.680646 -0.38224 254 254 251
0.139838 0.211262 1.00978 0.553449 -0.553307 -0.622531 252 253 249
0.136309 0.214565 0.996647 0.688243 -0.622871 -0.371959 254 254 249
0.140223 0.212757 1.00317 0.614974 -0.686111 -0.388664 254 254 253
0.140223 0.212757 1.00317 0.614974 -0.686111 -0.388664 254 254 253
-0.464238 0.384577 1.26508 0.254497 -0.927262 -0.274622 118 126 135
0.239323 0.295773 1.21911 0.697127 0.181993 -0.693464 250 241 226
0.238208 0.303667 1.2211 0.502645 0.552802 -0.664649 253 247 232
0.239162 0.301752 1.22131 0.57387 0.498933 -0.649415 247 238 225
0.230305 0.30938 1.21764 0.812701 -0.306924 -0.495293 253 249 234
0.236231 0.309945 1.22389 0.328074 -0.214706 -0.919929 253 251 240
0.228148 0.312677 1.21705 0.4531 0.407646 -0.792795 253 254 247
0.232118 0.312683 1.21933 0.0329112 0.0577435 -0.997789 254 255 252
0.239351 0.3129 1.22428 0.295796 0.189245 -0.936318 251 248 235
0.2269 0.315655 1.21575 0.296989 0.399206 -0.867428 251 253 247
0.228297 0.317644 1.22293 0.470122 -0.364946 -0.803617 255 255 254
0.236406 0.314318 1.22221 0.424766 0.101195 -0.899629 254 253 247
0.231519 0.320158 1.22191 0.195439 -0.17047 -0.965787 254 255 252
0.242124 0.316987 1.22765 0.238277 -0.459327 -0.855712 234 236 228
0.246899 0.322 1.25016 0.408976 0.07943 -0.909082 117 126 120
0.2466 0.321976 1.25024 0.482598 0.0571225 -0.873977 122 130 124
0.239302 0.32194 1.22465 0.796039 0.194685 -0.57308 242 243 240
0.2415 0.320533 1.22735 0.801817 0.18283 -0.568913 196 200 191
0.249571 0.322873 1.25272 0.0606141 0.204334 -0.977023 78 90 92
0.257372 0.320183 1.24713 -0.0379546 0.00441479 -0.99927 71 88 93
0.231389 0.324907 1.21799 0.532761 0.2187 -0.817518 253 253 240
0.231189 0.326119 1.21741 0.527982 -0.434606 -0.729625 252 251 236
0.236544 0.325121 1.22201 0.837484 0.0873404 -0.539437 247 248 240
0.251596 0.326519 1.25369 0.0603528 0.208398 -0.97618 66 83 87
-0.121398 0.359798 0.858372 0.259787 -0.548017 -0.795103 254 254 253
0.231093 0.328419 1.21528 0.470178 -0.435595 -0.767587 235 230 212
0.233787 0.328185 1.2173 0.831578 -0.300425 -0.467144 216 212 197
0.243311 0.331119 1.25676 0.455061 0.487703 -0.745027 93 104 106
-0.12293 0.364489 0.85448 0.178541 -0.733933 -0.655336 207 215 212
-0.120111 0.3637 0.856186 0.220435 -0.729731 -0.647226 198 204 202
-0.11781 0.3618 0.8568 0.236761 -0.647695 -0.724179 237 241 239
0.233096 0.332401 1.21983 0.563656 0.387547 -0.729451 210 208 185
0.241269 0.336663 1.25387 0.537459 0.396073 -0.744489 143 161 156
-0.123563 0.367094 0.851603 0.144475 -0.591165 -0.793505 152 166 166
-0.11432 0.366119 0.855564 0.319783 -0.656742 -0.682956 227 235 234
-0.107137 0.361624 0.856207 0.879872 -0.433091 -0.195595 254 255 253
0.224493 0.336885 1.21443 0.646776 0.284897 -0.707471 236 232 206
0.237136 0.337841 1.24671 0.867266 -0.190528 -0.459944 197 213 210
0.240288 0.337285 1.24975 0.659585 0.0795535 -0.747408 184 205 202
0.24218 0.338119 1.24997 0.736962 0.00693944 -0.675899 154 178 178
-0.127329 0.369471 0.846777 0.33466 -0.623099 -0.70693 106 122 137
-0.105917 0.365785 0.853976 0.199661 -0.847696 -0.491474 225 237 239
0.224072 0.340215 1.21428 0.660763 0.129318 -0.739371 230 229 208
0.240767 0.340538 1.24968 0.702592 -0.105653 -0.703705 140 166 166
-0.107572 0.368794 0.849896 0.198497 -0.849872 -0.488176 120 140 153
-0.103012 0.366911 0.8512 0.200823 -0.968711 -0.145839 170 193 211
-0.0976888 0.366782 0.850644 0.302313 -0.533988 -0.789597 157 173 180
0.234441 0.344111 1.23843 0.754523 -0.056207 -0.653862 173 194 190
-0.0934433 0.367614 0.854576 0.197432 -0.969787 -0.143299 203 217 219
0.228084 0.347917 1.23248 0.762207 -0.100356 -0.639507 192 205 198
-0.0950395 0.369993 0.849824 0.246192 -0.705908 -0.664141 86 98 99
-0.0884794 0.368996 0.851834 0.195258 -0.969581 -0.147602 141 163 175
-0.0815517 0.36864 0.854331 0.623972 -0.576435 -0.527618 135 156 165
0.268781 0.356875 1.32237 -0.437016 -0.634148 -0.637867 92 122 141
-0.126892 0.387583 0.86583 0.563074 -0.593651 -0.574914 123 144 151
-0.0808593 0.370641 0.85152 0.233945 -0.630279 -0.740282 125 145 160
-0.079135 0.371055 0.854264 0.218892 -0.679276 -0.700479 91 102 103
-0.0670224 0.369566 0.866689 0.425133 0.0493052 -0.903787 157 169 169
-0.0612685 0.366572 0.866331 0.280696 -0.792689 -0.54116 193 203 201
-0.0227907 0.36118 0.887064 0.769498 -0.637625 -0.0361478 250 250 243
-0.0208888 0.363599 0.903875 0.85524 -0.165328 -0.491153 252 251 244
-0.0201266 0.363168 0.910597 0.834356 -0.285661 -0.471431 251 248 238
-0.0201883 0.363106 0.910563 0.841352 -0.278681 -0.463102 252 248 238
-0.00996223 0.36238 0.912496 0.717559 -0.694901 -0.0471279 244 241 229
-0.129463 0.390588 0.861553 0.562366 -0.600739 -0.568205 161 189 199
-0.126431 0.389994 0.863086 0.560724 -0.601199 -0.56934 140 167 175
-0.115598 0.387595 0.867981 0.204336 -0.500028 -0.841557 108 124 128
-0.0203274 0.364891 0.900202 0.277599 -0.950875 -0.137025 242 242 237
-0.0147344 0.36452 0.901411 0.955618 0.0381816 -0.292123 240 235 229
-0.0189783 0.365801 0.908873 0.822692 -0.269956 -0.500302 235 232 220
0.000568791 0.363434 0.928363 0.790239 -0.601813 -0.115514 254 254 253
0.00330061 0.365553 0.934072 0.955328 -0.0044754 -0.295514 254 255 253
0.0292657 0.366295 0.986512 0.597697 -0.796814 -0.0885794 252 254 250
0.0333704 0.368629 0.990531 0.947523 -0.0727893 -0.311291 252 252 245
-0.121395 0.392296 0.865685 0.344943 -0.246584 -0.905655 135 161 168
-0.121764 0.392151 0.865278 0.462643 -0.769505 -0.440254 136 162 169
-0.120873 0.392412 0.868605 0.24745 -0.611417 -0.751624 128 152 159
-0.0589125 0.372207 0.869483 0.768034 0.408801 -0.492956 96 99 93
-0.0305457 0.36527 0.870567 0.651665 -0.758499 -0.00363989 90 82 74
-0.0339211 0.367356 0.872385 0.631499 -0.775376 -7.312e-005 85 77 70
-0.0318985 0.367554 0.875066 0.820639 0.139252 -0.554221 85 75 68
-0.027578 0.365161 0.872317 0.633695 -0.773479 -0.0127013 90 80 73
-0.016627 0.365818 0.892202 0.94921 -0.274617 -0.153579 149 141 129
-0.0162425 0.368822 0.903237 0.88162 -0.46313 -0.0908611 159 148 135
-0.014807 0.366388 0.906251 0.947482 0.0742784 -0.311063 224 217 207
-0.00268761 0.368954 0.925367 0.563286 0.00325561 -0.826255 242 236 228
0.000861993 0.368375 0.93289 0.923081 -0.331061 -0.195756 253 253 250
0.00202515 0.369688 0.935616 0.9224 -0.332733 -0.196132 250 250 247
0.00208147 0.372122 0.949226 0.795774 -0.507152 -0.33097 241 243 237
0.00900713 0.373537 0.965463 0.814443 -0.570675 -0.104947 243 246 237
0.0132207 0.372997 0.968661 0.951794 -0.0203476 -0.306062 252 253 248
0.0276044 0.370005 0.981013 0.49316 0.144363 -0.857877 243 243 235
0.0290006 0.371442 0.983715 0.950308 -0.120114 -0.287205 224 223 211
0.0294579 0.369728 0.986568 0.951755 -0.113051 -0.285276 228 227 216
0.0302901 0.371458 0.989434 0.948308 -0.0491619 -0.31352 239 238 228
-0.11919 0.394344 0.865601 0.240968 -0.735932 -0.632723 145 171 177
-0.117939 0.394069 0.867929 0.187338 -0.626219 -0.756805 134 157 164
-0.11473 0.394247 0.870769 0.133727 -0.946871 -0.292493 126 146 152
-0.106758 0.391732 0.870203 0.0826766 -0.973292 -0.214165 112 129 134
-0.106758 0.391732 0.870203 0.0826766 -0.973292 -0.214165 112 129 134
-0.106952 0.392721 0.872083 0.051526 -0.955656 -0.289941 111 128 133
-0.100767 0.391936 0.873734 0.225279 -0.914565 -0.335888 104 120 126
-0.103067 0.391487 0.874242 0.127619 -0.975679 -0.178227 99 113 117
-0.0982303 0.391539 0.876675 0.239482 -0.931574 -0.27353 94 106 109
-0.0723516 0.380908 0.875966 0.590264 0.44777 -0.671632 84 88 87
-0.0661095 0.379648 0.877976 0.594567 0.45136 -0.665405 79 77 76
-0.0296848 0.369037 0.876164 0.888535 0.239976 -0.391045 68 61 57
-0.0211967 0.368083 0.888692 0.882539 -0.243755 -0.40213 98 86 70
-0.0285847 0.372528 0.892314 0.875396 0.258537 -0.40846 86 73 60
-0.0179718 0.36818 0.893421 0.761028 0.390185 -0.518259 103 93 76
-0.0157944 0.369313 0.899609 0.94987 -0.0351436 -0.310663 154 142 128
-0.0161199 0.371704 0.903278 0.946979 0.0734196 -0.312794 110 98 83
-0.0151288 0.370016 0.9063 0.948041 0.0635037 -0.311746 134 121 103
-0.00928783 0.372369 0.919234 0.578282 0.472591 -0.665017 143 127 107
-0.00494991 0.372071 0.922515 0.592622 0.497768 -0.633266 154 139 118
-0.00195951 0.370947 0.926584 0.747208 0.400967 -0.530005 204 194 181
0.00120181 0.369843 0.930209 0.747399 0.400965 -0.529738 223 218 211
0.0030129 0.371142 0.939928 0.8546 -0.436858 -0.280738 239 241 236
0.00218323 0.3732 0.944339 0.800815 -0.497046 -0.334125 232 231 224
0.00415861 0.374852 0.949205 0.819344 -0.450451 -0.354641 211 208 200
0.00385873 0.37498 0.949246 0.805953 -0.484081 -0.340743 211 207 199
0.0118351 0.375227 0.96656 0.902826 -0.238016 -0.358124 227 231 223
0.0125155 0.376668 0.969446 0.955082 -0.146428 -0.257639 239 240 236
0.0291677 0.374854 0.983737 0.866858 -0.473125 -0.157194 202 201 184
0.029464 0.373211 0.986613 0.947531 -0.0405861 -0.317076 237 236 222
0.0311185 0.374863 0.989372 0.947852 -0.0486786 -0.31497 244 244 232
0.0308641 0.373274 0.992441 0.94401 -0.0183451 -0.329406 235 234 221
0.0304313 0.380312 1.01323 0.700533 -0.644793 -0.305769 201 198 182
0.0328651 0.379915 1.01358 0.694118 -0.652285 -0.304508 198 195 180
0.0411286 0.378199 1.02077 0.818334 -0.402049 -0.410714 213 216 207
0.0415543 0.379402 1.02393 0.768478 -0.527223 -0.362598 208 212 204
0.0443954 0.376576 1.02486 0.840933 -0.514766 -0.166877 228 232 222
-0.10168 0.391466 0.859181 -0.0247885 -0.839791 -0.542344 125 151 154
-0.101654 0.391455 0.859168 -0.0237174 -0.841965 -0.539011 124 151 154
-0.102555 0.391956 0.862772 -0.0335755 -0.784509 -0.619208 121 146 148
-0.110457 0.395378 0.868564 0.0363742 -0.913929 -0.404241 130 151 158
-0.101236 0.391626 0.864909 0.0498942 -0.751581 -0.657751 116 133 136
-0.0970781 0.391465 0.866436 0.0729887 -0.970591 -0.229402 116 133 139
-0.100741 0.39403 0.873093 0.174418 -0.968109 -0.17984 125 145 153
-0.095873 0.394071 0.875519 0.22034 -0.945116 -0.24126 119 136 142
-0.095218 0.392363 0.88005 0.1728 -0.966871 -0.187885 102 114 117
-0.0626743 0.38443 0.891053 0.42178 -0.899285 -0.115707 52 45 42
-0.0306512 0.374137 0.889047 0.875144 0.259505 -0.408387 60 51 45
-0.0299299 0.376605 0.892378 0.880592 0.24961 -0.402806 54 46 46
-0.0228248 0.37376 0.895068 0.799499 0.357222 -0.482902 67 54 51
-0.0175042 0.371451 0.897243 0.777027 0.361804 -0.515099 80 67 57
-0.0171116 0.373378 0.900222 0.940916 0.099851 -0.323584 71 61 52
-0.00836164 0.376181 0.922536 0.586119 0.483607 -0.650068 94 77 62
-0.00713293 0.376264 0.927794 0.712693 0.428189 -0.555628 114 99 79
-7.77023e-005 0.374321 0.935321 0.712781 0.427962 -0.555691 153 144 131
-0.000325277 0.377118 0.93886 0.805349 0.3341 -0.489684 112 101 88
0.00387351 0.37696 0.946591 0.813145 -0.467754 -0.346412 118 110 97
0.00394386 0.376866 0.946578 0.824919 -0.436111 -0.359605 120 112 99
0.00319466 0.378238 0.950711 0.64484 0.478183 -0.596256 121 113 100
0.00717243 0.37721 0.958405 0.761789 0.3807 -0.524161 186 186 177
0.0126395 0.378406 0.966678 0.88136 -0.379064 -0.281984 155 154 144
0.013736 0.379697 0.969463 0.897437 -0.413711 -0.153134 140 137 127
0.0301289 0.376442 0.986612 0.951087 -0.145284 -0.272626 208 210 195
0.0301961 0.377164 0.993805 0.871634 -0.336529 -0.356374 236 237 228
0.0345983 0.377006 0.996539 0.538974 0.438348 -0.719276 242 243 237
0.0346271 0.378987 1.00306 0.853898 0.239077 -0.462278 233 233 220
0.0352665 0.381013 1.00908 0.529011 -0.6114 -0.588505 184 182 170
0.035005 0.379403 1.01296 0.727616 -0.604292 -0.324662 201 196 182
0.0353263 0.379462 1.01336 0.755126 -0.557318 -0.345226 202 197 184
-0.10054 0.393221 0.855159 -0.0249573 -0.840183 -0.541728 146 176 179
-0.0995681 0.393133 0.858205 -0.0479117 -0.739655 -0.671278 138 164 169
-0.0907423 0.392032 0.857678 -0.0542037 -0.687049 -0.724586 109 133 138
-0.0980879 0.392497 0.860825 -0.0531908 -0.653544 -0.755017 115 139 143
-0.0903333 0.391854 0.857219 -0.0546745 -0.658642 -0.750468 109 133 139
-0.0903227 0.391849 0.857214 -0.0562131 -0.65839 -0.750575 109 133 139
-0.0907023 0.39392 0.877571 0.173379 -0.972084 -0.158089 112 128 133
-0.0668378 0.389946 0.882198 0.157736 -0.924787 -0.346248 89 98 100
-0.0592913 0.387358 0.8896 0.247007 -0.435066 -0.865855 60 61 63
-0.0552334 0.387334 0.891261 0.489998 -0.772004 -0.40486 63 62 65
