ply
format ascii 1.0
element vertex 719
property float x
property float y
property float z
property float nx
property float ny
property float nz
property uchar diffuse_red
property uchar diffuse_green
property uchar diffuse_blue
end_header
-2.36454 0.373833 0.956743 0.873975 -0.485686 -0.0166314 252 247 236
-2.62209 0.432721 0.696742 0.248141 -0.187759 -0.950354 11 17 71
-2.63375 0.440464 0.680996 0.617883 -0.315866 -0.720034 23 43 111
-2.61864 0.439948 0.691993 0.345489 -0.244339 -0.906055 32 39 84
-2.63493 0.447916 0.677185 0.624253 -0.287528 -0.726385 49 75 125
-2.62753 0.449995 0.686074 0.610617 -0.304112 -0.731207 35 41 83
-2.61976 0.446969 0.692182 0.610872 -0.334663 -0.717521 73 80 115
-2.61305 0.448606 0.697339 0.61952 -0.28476 -0.73151 157 153 162
-2.63245 0.455204 0.674378 0.623679 -0.283531 -0.728447 78 88 117
-2.62109 0.452324 0.687894 0.555348 -0.269053 -0.786892 129 126 139
-2.6238 0.457158 0.684511 0.604028 -0.350664 -0.715671 166 163 165
-2.62627 0.463556 0.679271 0.609024 -0.354123 -0.709709 195 188 178
-2.62598 0.4628 0.682616 0.630359 -0.23503 -0.739871 200 193 183
-2.61666 0.459734 0.693261 0.629248 -0.231741 -0.741852 218 215 209
-2.61867 0.464931 0.691743 0.618818 -0.303104 -0.724701 222 220 210
-3.37454 0.618144 0.910767 0.375774 -0.751351 -0.542463 171 178 182
-3.36497 0.611824 0.911551 0.337204 -0.0211112 -0.941195 73 91 102
-3.35743 0.611053 0.910943 0.264305 -0.0456475 -0.963358 81 97 109
-3.35759 0.611479 0.91179 0.279681 0.0247558 -0.959774 83 99 111
-2.61438 0.466252 0.693452 0.630494 -0.21458 -0.745944 231 229 220
-3.39181 0.630055 0.893859 0.493437 -0.473999 -0.729277 229 228 222
-3.3536 0.618782 0.914115 0.276629 0.0167337 -0.960831 176 180 180
-3.34594 0.618246 0.914038 0.437729 0.514863 -0.737095 144 148 147
-2.63698 0.47871 0.674032 0.662717 -0.398578 -0.633989 239 239 237
-3.38458 0.630645 0.901153 0.684714 -0.253704 -0.683228 213 212 208
-3.38208 0.637004 0.89422 0.439058 -0.685521 -0.580766 232 231 223
-3.57305 0.698326 0.85045 0.541902 0.526981 -0.654701 84 91 94
-3.58197 0.709275 0.856975 0.542972 0.525512 -0.654995 102 111 111
-3.59311 0.710766 0.854844 0.497401 0.559766 -0.662763 92 101 101
-3.55571 0.714431 0.87767 0.665638 -0.0446773 -0.744936 209 218 215
-3.55505 0.722663 0.870855 0.861038 -0.0781328 -0.502502 190 195 193
-3.56118 0.730449 0.871001 0.863761 -0.0836037 -0.496918 142 149 147
-3.56189 0.742576 0.877398 0.858462 -0.0796659 -0.506653 212 217 217
-3.55759 0.736927 0.886585 0.706135 -0.107612 -0.699852 197 188 181
-3.5576 0.736712 0.886387 0.711551 -0.093461 -0.696391 197 188 181
-3.56618 0.748295 0.86848 0.640609 -0.163548 -0.750248 103 109 110
-3.56087 0.75261 0.874177 0.85376 -0.165601 -0.493629 184 188 187
-3.55658 0.747611 0.885633 0.86311 -0.0793363 -0.498746 252 254 254
-3.56422 0.760102 0.872045 0.859523 -0.190375 -0.474317 136 141 142
-3.55559 0.755713 0.878024 0.807219 -0.126277 -0.576586 253 254 253
-2.85689 0.585419 0.243309 0.537058 0.285181 -0.793877 109 114 107
-3.55394 0.766325 0.878341 0.764775 -0.184895 -0.617198 254 255 254
-2.85002 0.590357 0.247134 0.537089 0.284643 -0.794049 211 215 211
-2.84759 0.590373 0.251398 0.53683 0.290027 -0.792274 237 241 235
-2.8514 0.597556 0.254257 0.729917 0.238876 -0.640437 243 246 243
-2.85154 0.596561 0.259344 0.620481 0.422735 -0.660529 239 242 239
-2.85082 0.600631 0.232753 0.883219 -0.464838 -0.0620516 146 151 145
-2.851 0.604434 0.239588 0.932743 -0.337671 0.126372 214 217 214
-2.85717 0.601467 0.24743 0.773641 0.13604 -0.618848 246 249 246
-3.83805 0.895841 1.44867 0.883162 -0.266507 -0.386004 25 15 9
-3.83235 0.884747 1.44942 0.896242 -0.192022 -0.399847 22 13 7
-2.84439 0.61159 0.225448 0.877615 -0.46242 0.126331 108 115 108
-2.84727 0.608268 0.232778 0.871321 -0.471764 0.135047 174 179 175
-2.84484 0.612194 0.240044 0.811895 -0.581074 0.0563836 240 243 241
-3.82832 0.898122 1.45126 0.858475 -0.379749 -0.344691 27 16 11
-2.84219 0.615035 0.21817 0.825975 -0.547208 0.135384 94 104 98
-2.84108 0.61529 0.232649 0.786973 -0.564861 0.248205 211 216 210
-3.89089 0.921379 1.42772 0.599949 -0.190794 -0.776955 73 63 50
-3.85294 0.914574 1.42352 0.591012 -0.0859967 -0.802066 83 71 63
-3.86158 0.912089 1.42405 0.565346 -0.0402103 -0.823873 48 34 28
-3.86531 0.919377 1.42502 0.600495 -0.0277917 -0.799145 87 77 67
-3.87367 0.916054 1.4255 0.573631 -0.0377184 -0.818245 50 37 30
-3.8821 0.92327 1.42839 0.598604 -0.154142 -0.786075 61 50 43
-3.8361 0.912679 1.4313 0.893701 0.0111792 -0.448524 57 45 42
-3.84646 0.919451 1.43044 0.84024 -0.0921489 -0.534327 91 81 74
-3.82853 0.905749 1.43675 0.803945 0.0262839 -0.594123 41 29 24
-3.821 0.910033 1.44646 0.890927 -0.249531 -0.379452 55 44 40
-2.84613 0.624532 0.218881 0.498195 0.010005 -0.867007 114 126 123
-2.84147 0.619367 0.225499 0.872737 -0.468596 0.13692 224 231 227
-2.83792 0.622564 0.232198 0.791945 -0.606157 -0.0734555 250 254 253
-2.83921 0.622754 0.246926 0.485716 -0.679209 -0.550232 249 254 253
-3.89858 0.938635 1.42804 0.129275 -0.258709 -0.957266 83 76 71
-3.86585 0.930941 1.42655 0.608767 0.0212348 -0.793065 83 74 68
-3.8741 0.927485 1.42889 0.602716 0.0166244 -0.797782 73 62 57
-3.87303 0.926521 1.42412 0.552233 -0.393454 -0.735005 93 84 76
-3.88283 0.935208 1.42911 0.629824 0.00251324 -0.776734 83 73 68
-3.88254 0.934712 1.42971 0.611148 -0.0138996 -0.791394 82 72 66
-3.83244 0.925129 1.42982 0.829716 -0.103231 -0.548557 104 98 92
-3.83974 0.92226 1.42964 0.855202 -0.0676155 -0.513866 96 88 81
-3.85214 0.928443 1.42946 0.824944 -0.0126673 -0.565073 103 95 88
-3.80948 0.91966 1.42309 0.861012 -0.172732 -0.478354 107 102 97
-3.82753 0.916831 1.43215 0.872415 -0.0845071 -0.481405 90 82 75
-3.81546 0.917909 1.42559 0.893196 -0.134886 -0.42896 96 90 85
-2.86225 0.637746 0.203704 0.65186 0.25488 -0.714223 70 85 84
-2.85501 0.63105 0.211317 0.528749 0.173626 -0.83083 91 108 108
-2.85611 0.631333 0.207228 0.620223 0.220542 -0.752784 103 118 116
-2.86039 0.637048 0.207512 0.539708 0.186867 -0.820851 85 101 98
-2.83865 0.630775 0.218601 0.435164 -0.169167 -0.884316 219 230 228
-2.84973 0.629581 0.215219 0.547385 0.0870726 -0.832339 84 98 97
-2.84165 0.633462 0.218706 0.479303 0.00692185 -0.877622 220 232 230
-2.8401 0.627119 0.225486 0.990217 -0.135236 -0.0343729 243 247 246
-2.83742 0.626091 0.239392 0.715654 -0.697706 0.032335 251 254 253
-3.91775 0.955576 1.42273 0.106627 -0.450102 -0.886588 112 117 124
-3.89956 0.9507 1.43203 0.587489 0.0358217 -0.808439 119 115 110
-3.90755 0.955639 1.42613 0.295597 0.218067 -0.930091 105 109 104
-3.85262 0.939142 1.42753 0.892186 0.0288019 -0.450748 105 101 95
-3.85866 0.936273 1.42544 0.575061 0.130915 -0.807568 96 88 82
-3.86846 0.942328 1.42729 0.560045 0.0877287 -0.823804 107 102 97
-3.87437 0.938299 1.42773 0.604856 -0.024034 -0.795972 93 85 78
-3.88237 0.946077 1.42885 0.578074 -0.000635467 -0.815984 108 105 100
-3.89072 0.942581 1.43138 0.611047 -0.00972113 -0.791535 93 86 79
-3.89116 0.94294 1.4303 0.611724 0.00163189 -0.791069 94 88 81
-3.82571 0.926265 1.42397 0.752656 0.0693145 -0.654755 117 112 108
-3.83761 0.9324 1.42256 0.501028 0.263538 -0.824329 129 124 115
-3.84533 0.930983 1.42841 0.79462 0.0220194 -0.606708 117 111 105
-3.83095 0.937377 1.4301 0.897349 -0.21587 -0.384923 137 135 128
-2.86168 0.642644 0.205717 0.596578 0.233057 -0.767971 94 112 110
-2.85013 0.64267 0.211546 0.445176 -0.145677 -0.883514 211 224 221
-2.85381 0.636988 0.211156 0.5582 0.224203 -0.79884 90 108 106
-2.85663 0.642911 0.209105 0.480543 -0.0104157 -0.876909 130 148 143
-2.83496 0.636416 0.218882 0.467791 -0.0596808 -0.881822 246 253 252
-2.84842 0.635648 0.215075 0.560024 0.171425 -0.810547 131 150 145
-2.82919 0.632476 0.225029 0.45512 -0.0881772 -0.886054 254 254 254
-3.89898 0.958147 1.4202 0.328526 -0.430456 -0.840701 151 154 150
-3.88784 0.958061 1.42425 0.871167 -0.256528 -0.418641 177 179 178
-3.86214 0.950403 1.43554 0.898247 -0.205664 -0.3884 144 147 143
-3.85634 0.952644 1.4363 0.892999 -0.213042 -0.396441 122 126 127
-2.86381 0.64942 0.205695 0.599999 0.311836 -0.736722 107 128 126
-2.83678 0.641739 0.215468 0.469073 -0.346192 -0.812479 246 254 252
-2.84381 0.642517 0.214215 0.447173 -0.148112 -0.8821 240 248 246
-2.85867 0.654319 0.21273 0.55909 0.285804 -0.77829 199 220 219
-2.86506 0.655451 0.208514 0.557496 0.278845 -0.781948 125 146 144
-2.86485 0.661494 0.20837 0.594025 0.31224 -0.741378 113 136 133
-2.85234 0.653273 0.216987 0.55791 0.290508 -0.777394 234 250 249
-2.85812 0.660272 0.212566 0.55884 0.276871 -0.781691 199 218 218
-2.86291 0.668997 0.215776 0.863805 0.340959 -0.370927 238 249 248
-2.86068 0.666529 0.222154 0.751065 -0.00890094 -0.660168 238 248 249
-2.85393 0.660334 0.221449 0.537959 0.216067 -0.81481 241 253 253
-2.86612 0.67732 0.215643 0.575281 0.335654 -0.745915 231 247 247
-2.86005 0.672846 0.221691 0.750085 0.0224465 -0.660961 231 246 248
-3.53096 0.973363 0.862862 0.235292 -0.814227 -0.530728 157 160 165
-2.29722 0.655376 1.35652 0.845736 0.322657 -0.424998 49 50 49
-2.29716 0.655379 1.35647 0.849305 0.316277 -0.42267 49 50 49
-2.29999 0.663328 1.35638 0.849287 0.315814 -0.423053 117 121 120
-2.29558 0.660418 1.36309 0.846583 0.319707 -0.425541 41 43 44
-2.29853 0.668422 1.36308 0.849189 0.314698 -0.424079 113 118 120
-2.30139 0.676438 1.36305 0.85177 0.308849 -0.423203 168 170 173
-2.30271 0.684136 1.36319 0.87072 0.123973 -0.475896 206 201 203
-2.30138 0.691115 1.36309 0.845917 -0.139271 -0.514808 201 195 194
-2.29224 0.687092 1.36706 0.538056 -0.277348 -0.795973 156 155 153
-2.29368 0.696972 1.35835 0.85498 -0.0520227 -0.516046 239 234 232
-2.29227 0.693986 1.3658 0.68104 -0.0134986 -0.732122 210 206 204
-2.28824 0.695594 1.37326 0.526553 0.396545 -0.751994 196 198 192
-2.28002 0.691029 1.38297 0.227111 -0.445773 -0.865856 45 48 43
-2.27208 0.690892 1.38665 0.563692 0.494669 -0.661479 31 32 31
-2.28363 0.702218 1.37794 0.574725 0.252341 -0.77847 229 233 231
-2.27477 0.697497 1.38254 0.517229 -0.353936 -0.779233 114 126 130
-2.26912 0.69817 1.38771 0.636154 0.217737 -0.740201 54 57 59
-2.27026 0.700136 1.39511 0.646684 -0.185887 -0.73976 93 104 112
-2.29104 0.707442 1.37457 0.506236 -0.42962 -0.747764 240 240 234
-2.28477 0.711265 1.37897 0.62248 -0.0337269 -0.781909 251 253 250
-2.27688 0.705861 1.38201 0.577328 0.194975 -0.792892 203 212 213
-2.26934 0.703494 1.38674 0.470479 0.300309 -0.829737 103 111 116
-2.26541 0.705131 1.39278 0.468644 0.300457 -0.830722 82 91 96
-2.29009 0.715744 1.37426 0.51837 -0.379038 -0.766566 244 245 240
-2.27789 0.714863 1.38296 0.756387 0.0421363 -0.652766 240 242 239
-2.27239 0.710858 1.38809 0.719922 -0.00915468 -0.693995 178 185 187
-2.26872 0.713822 1.39283 0.755563 -0.118636 -0.644244 140 147 152
-2.26239 0.707085 1.39902 0.455702 -0.210143 -0.864972 66 72 79
-2.26015 0.708889 1.40417 0.393608 -0.162 -0.904891 49 55 60
-2.25668 0.710343 1.40848 0.390631 -0.146722 -0.908779 45 51 55
-2.28747 0.723872 1.37594 0.926135 0.00810404 -0.377104 228 223 218
-2.27982 0.723382 1.38325 0.515026 -0.151556 -0.84367 237 237 233
-2.27092 0.718236 1.38771 0.749088 -0.208277 -0.628878 215 218 220
-2.26836 0.721502 1.39316 0.722552 -0.113295 -0.68197 201 204 209
-2.26222 0.715889 1.40054 0.752816 -0.0440339 -0.656756 71 77 83
-2.26716 0.724767 1.38736 0.582428 -0.657661 -0.477765 193 193 195
-2.26368 0.724808 1.3984 0.251104 -0.348218 -0.903156 144 147 150
-2.90989 0.868484 0.12178 0.651259 -0.63775 0.411263 2 4 1
-2.88905 0.866534 0.100771 0.265173 -0.954663 0.135282 2 3 1
-2.89135 0.867908 0.105634 0.588226 -0.711839 0.383766 2 3 1
-2.90231 0.868938 0.114162 0.555449 -0.760837 0.335565 2 4 1
-2.90361 0.875411 0.121788 0.591664 -0.70884 0.384032 5 8 6
-2.91414 0.876954 0.132634 0.625625 -0.668457 0.402192 7 10 9
-2.88642 0.871596 0.0905229 0.268325 -0.952861 0.141623 2 4 1
-2.87827 0.869082 0.0933331 0.601908 -0.727167 0.330053 2 4 1
-2.88191 0.872132 0.105813 0.266553 -0.95432 0.134993 3 6 3
-2.89344 0.877747 0.116097 0.2668 -0.953748 0.138497 7 14 9
-2.90276 0.881399 0.129453 0.619589 -0.67532 0.400065 49 66 63
-2.85117 0.86767 0.0527195 0.357585 -0.903825 0.235016 1 3 0
-2.87211 0.875984 0.0933242 0.544903 -0.752803 0.369281 7 8 8
-2.87526 0.875952 0.0968343 0.264721 -0.954001 0.140726 8 9 8
-2.88093 0.876064 0.101494 0.568057 -0.732371 0.375425 7 9 7
-2.87901 0.881831 0.109672 0.557521 -0.741705 0.372888 79 98 99
-2.88172 0.881973 0.122582 0.266174 -0.953835 0.139102 147 172 184
-2.89544 0.88803 0.129474 0.619457 -0.675046 0.400732 172 201 212
-2.84285 0.87293 0.0579034 0.265448 -0.951468 0.15571 2 4 3
-2.85427 0.870883 0.0651718 0.270521 -0.949899 0.156558 2 3 2
-2.859 0.874541 0.0772355 0.265824 -0.952262 0.150114 4 6 4
-2.85935 0.874071 0.0850396 0.577682 -0.717911 0.388442 6 8 6
-2.86342 0.878037 0.0895275 0.262467 -0.954075 0.144403 12 19 15
-2.86511 0.880506 0.10305 0.264454 -0.953643 0.143631 108 130 137
-2.86862 0.881745 0.101679 0.26383 -0.953964 0.14264 94 114 117
-2.78811 0.858537 0.0173828 0.356129 -0.900375 0.249994 1 2 0
-2.80239 0.858038 0.0224851 0.35629 -0.901141 0.246988 1 3 1
-2.80731 0.862566 0.0326308 0.334653 -0.914582 0.227039 1 3 0
-2.80731 0.862566 0.0326308 0.334653 -0.914582 0.227039 1 3 0
-2.80731 0.862566 0.0326308 0.334653 -0.914582 0.227039 1 3 0
-2.82582 0.87079 0.0395001 0.265453 -0.950545 0.161239 1 3 2
-2.83055 0.874583 0.0512475 0.26591 -0.950467 0.160946 3 7 5
-2.83076 0.876928 0.0644595 0.271068 -0.948713 0.162682 18 29 25
-2.84668 0.876357 0.0702433 0.264017 -0.952364 0.152639 7 11 8
-2.84699 0.878564 0.0837583 0.262161 -0.953648 0.147737 61 77 79
-2.85348 0.882602 0.0957313 0.264533 -0.953031 0.147496 158 187 197
-2.78929 0.865477 0.00440275 0.279473 -0.941564 0.188019 1 3 1
-2.78299 0.861955 0.00901349 0.356206 -0.898979 0.254862 1 3 1
-2.8102 0.871387 0.0337723 0.275642 -0.945279 0.174557 3 5 4
-2.80982 0.87121 0.033934 0.266093 -0.949479 0.166384 3 5 4
-2.81448 0.87499 0.045668 0.25952 -0.952853 0.157229 8 13 12
-2.82304 0.882288 0.0695012 0.285706 -0.942617 0.172755 164 193 205
-2.83554 0.880623 0.0764488 0.257311 -0.955047 0.147229 124 148 156
-2.80126 0.877421 0.0960757 0.207643 -0.975549 0.0720266 212 244 254
-2.77808 0.867231 -0.00260729 0.280922 -0.940107 0.193085 1 3 1
-2.78306 0.871193 0.00864236 0.261736 -0.95015 0.169435 4 6 3
-2.78715 0.873922 0.0184468 0.316429 -0.924659 0.211843 6 10 7
-2.75791 0.86435 -0.00699988 0.497512 -0.786595 0.365719 2 3 1
-2.76293 0.870084 0.00136078 0.447154 -0.830708 0.331627 4 8 4
-2.77666 0.876994 0.0144702 0.296315 -0.932255 0.207601 29 44 41
-2.78924 0.875703 0.0215098 0.261412 -0.950125 0.170075 11 18 15
-2.75234 0.871509 -0.00505172 0.413518 -0.856132 0.309905 7 12 8
-2.7527 0.871438 -0.00470215 0.411635 -0.85754 0.308515 6 11 7
-2.76504 0.874851 0.0107954 0.448827 -0.830035 0.331054 31 47 42
-2.66103 0.892789 0.281086 0.345161 -0.932857 -0.10316 254 255 253
-2.65649 0.886513 0.278342 0.533918 -0.812367 -0.234503 254 255 254
-2.64082 0.887916 0.287586 0.684955 -0.72674 0.0518178 255 255 254
-2.63569 0.888446 0.291721 0.735082 -0.668143 0.11506 255 255 254
-2.64386 0.890829 0.293219 0.805683 -0.592342 -0.00219849 255 255 255
-2.64325 0.890249 0.292098 0.60318 -0.790034 0.10964 255 255 255
-2.63081 0.894629 0.278856 0.341035 -0.922457 -0.181021 222 233 233
-2.63633 0.897664 0.28235 0.372198 -0.798062 -0.473883 229 237 235
-2.62613 0.895608 0.291558 0.388751 -0.796122 -0.463747 226 234 236
-2.63618 0.894029 0.288359 0.572751 -0.793241 -0.2067 254 254 254
-2.63051 0.895839 0.292843 0.64949 -0.753685 0.100605 250 252 252
-2.61882 0.890299 0.304448 0.988488 0.0617674 -0.138119 254 255 255
-2.63482 0.893648 0.300629 0.216232 -0.870927 -0.441281 254 254 254
-2.61266 0.891753 0.306761 0.994568 -0.0013394 -0.104082 252 255 254
-2.60958 0.887322 0.314949 0.995123 -0.0663213 -0.0730207 254 255 255
-2.5981 0.885397 0.311452 0.77879 0.351142 -0.519794 254 254 254
-2.59261 0.883131 0.319507 0.912438 0.280537 -0.29792 254 255 255
-2.622 0.896495 0.273711 0.211839 -0.950595 -0.226923 131 147 149
-2.62651 0.89842 0.284753 0.390866 -0.867004 -0.309075 177 191 191
-2.62256 0.901557 0.299744 0.155323 -0.978906 -0.132735 176 188 184
-2.61702 0.896454 0.304177 0.570275 -0.138236 -0.809739 226 232 233
-2.62099 0.896807 0.300048 0.329385 -0.943436 0.0378776 242 244 243
-2.61335 0.899579 0.309102 0.784458 -0.407238 -0.467742 233 239 237
-2.60842 0.893676 0.314771 0.636721 -0.0971001 -0.764957 241 250 249
-2.59841 0.893775 0.319486 0.627453 -0.171252 -0.759589 241 247 247
-2.58574 0.888204 0.32641 0.176771 -0.92551 -0.334938 244 249 248
-2.58308 0.886647 0.322509 0.861517 -0.281998 -0.422214 254 254 254
-2.56652 0.88145 0.333462 0.701391 0.368288 -0.610258 254 254 253
-2.32919 0.790794 0.24006 0.163614 -0.90876 -0.383909 70 82 93
-2.61229 0.901263 0.30353 0.569925 -0.163326 -0.805301 171 181 179
-2.61293 0.901049 0.301496 0.801878 -0.352708 -0.482274 192 203 201
-2.60922 0.904596 0.309125 0.889367 -0.0345677 -0.455884 188 200 197
-2.60572 0.900145 0.314714 0.828661 -0.254276 -0.498664 218 226 222
-2.60325 0.90356 0.315153 0.530541 -0.806186 -0.261896 188 200 196
-2.59859 0.901355 0.319693 0.623362 -0.0452023 -0.780626 165 179 174
-2.58573 0.892194 0.31983 0.564523 0.250975 -0.786337 212 222 220
-2.58523 0.895316 0.319684 0.675245 0.32726 -0.661019 198 208 203
-2.57854 0.890013 0.335068 0.49667 -0.589873 -0.636686 247 252 250
-2.57413 0.890575 0.334672 0.796853 -0.250655 -0.549725 248 250 249
-2.57578 0.894659 0.329657 0.801352 0.0172419 -0.597945 210 215 213
-2.55679 0.882888 0.339084 0.67222 0.483362 -0.560786 250 246 245
-2.56047 0.884738 0.347655 0.608234 0.365505 -0.704598 250 249 244
-2.53062 0.879503 0.372361 0.160161 -0.799392 -0.579068 236 234 233
-2.54182 0.883536 0.377526 0.153465 -0.81587 -0.557498 254 254 253
-2.52596 0.880014 0.395092 0.294745 -0.894401 -0.336411 249 249 244
-2.52565 0.875193 0.400381 0.41526 -0.728612 -0.544687 252 254 250
-2.52229 0.878628 0.408511 0.216095 -0.969563 -0.11511 252 250 246
-2.51636 0.87906 0.412129 0.770934 -0.490767 -0.405967 254 254 251
-2.51583 0.875844 0.418892 0.598309 -0.466557 -0.651423 253 254 253
-2.49176 0.872386 0.448173 0.548571 0.313298 -0.775187 254 254 250
-2.48103 0.868044 0.446871 0.600836 0.409904 -0.686276 253 249 244
-2.50089 0.875569 0.448478 0.553544 0.320154 -0.768824 253 254 250
-2.32401 0.792453 0.248843 0.161246 -0.88356 -0.439683 91 104 112
-2.61247 0.908881 0.303905 0.822886 -0.560393 -0.0939061 129 145 145
-2.61078 0.907656 0.303813 0.221871 -0.9076 -0.356421 111 123 120
-2.6104 0.906825 0.304603 0.33149 -0.908581 -0.254155 134 148 150
-2.60438 0.907946 0.308663 0.63416 -0.749568 -0.189709 129 144 146
-2.60341 0.907813 0.308929 0.165932 -0.827012 -0.537138 106 116 116
-2.60003 0.909149 0.315451 0.714202 -0.0462234 -0.698412 114 123 120
-2.6003 0.9095 0.315553 0.796764 0.347919 -0.494084 119 129 123
-2.59697 0.906706 0.312795 0.502052 -0.828162 -0.249182 134 150 150
-2.5794 0.89818 0.324447 0.768401 0.0332479 -0.639105 166 176 172
-2.58311 0.899388 0.324168 0.793821 -0.292056 -0.533434 167 178 173
-2.56941 0.894772 0.334122 0.447293 -0.684741 -0.575378 185 190 186
-2.56721 0.895892 0.343905 0.741301 0.452465 -0.49573 157 151 143
-2.56765 0.896879 0.341842 0.726784 0.277973 -0.628105 134 129 121
-2.52896 0.883702 0.366515 0.777277 -0.339085 -0.529965 183 171 163
-2.52433 0.883974 0.372719 0.518233 -0.803147 -0.293921 188 178 172
-2.52756 0.880885 0.380415 0.555924 -0.80396 0.211178 254 254 251
-2.52131 0.879744 0.386619 0.936157 -0.322144 0.140833 252 254 249
-2.52245 0.883964 0.393065 0.956724 -0.218327 0.192387 243 244 237
-2.52745 0.882623 0.401319 0.587247 -0.675023 -0.446638 248 247 241
-2.52313 0.885085 0.406944 0.8458 -0.270757 -0.459687 251 251 243
-2.51627 0.880285 0.414145 0.772682 -0.595194 0.220697 253 254 250
-2.51054 0.881787 0.419186 0.819335 -0.512813 0.256347 250 251 247
-2.5132 0.881983 0.416476 0.752497 -0.193016 -0.629677 253 254 251
-2.51035 0.885316 0.438486 0.88827 -0.43742 0.140142 251 251 245
-2.50912 0.881935 0.443148 0.236319 -0.950967 -0.199539 253 253 247
-2.5048 0.883051 0.448375 0.577582 0.303591 -0.757781 252 252 246
-2.49388 0.882281 0.480679 0.814474 0.382786 -0.436012 252 248 241
-2.48802 0.879261 0.488537 0.809641 0.389391 -0.439154 253 254 250
-2.50551 0.890022 0.527299 0.826888 -0.562364 0.00139415 254 255 254
-2.49834 0.891805 0.566769 0.666497 -0.236283 -0.707073 248 248 243
-2.48617 0.884737 0.56735 0.791151 0.403055 -0.460028 249 249 245
-2.46354 0.875624 0.598549 0.994962 0.0988776 -0.0165451 254 254 254
-2.4698 0.882099 0.606929 0.9947 0.101082 -0.018855 255 255 254
-2.47151 0.880261 0.618615 0.434221 0.215439 -0.874664 255 255 253
-2.46561 0.884077 0.621359 0.723686 0.252239 -0.642381 253 253 252
-2.57964 0.908007 0.327021 0.449211 -0.544177 -0.708577 99 104 103
-2.58608 0.909638 0.323316 0.591909 0.275856 -0.757329 92 98 95
-2.57182 0.900618 0.331829 0.758588 -0.501601 -0.415862 125 132 126
-2.57753 0.902751 0.329813 0.749057 0.0761698 -0.658113 120 125 116
-2.57082 0.905083 0.341892 0.818212 0.371558 -0.438719 93 92 83
-2.56509 0.902917 0.351754 0.651689 0.442688 -0.615897 106 91 78
-2.51878 0.886682 0.38651 0.470842 -0.860973 0.192441 229 223 218
-2.51327 0.888671 0.389709 0.872004 -0.41638 0.257364 156 148 135
-2.52425 0.889277 0.401194 0.970011 -0.182799 -0.160201 241 237 229
-2.51941 0.893546 0.407573 0.93524 0.205684 -0.288133 166 157 146
-2.52359 0.892714 0.407206 0.90104 -0.427077 -0.0757156 204 197 189
-2.51561 0.886483 0.411238 0.758762 -0.163881 -0.630415 241 238 232
-2.51157 0.88927 0.416854 0.814863 -0.223081 -0.535008 217 212 204
-2.50905 0.88456 0.423973 0.995507 -0.0773268 0.0546484 242 243 237
-2.50774 0.887707 0.429462 0.990077 -0.138608 0.0231536 234 233 226
-2.50541 0.887553 0.443297 0.665772 -0.460059 -0.587446 247 242 236
-2.50057 0.888291 0.447866 0.609206 0.250785 -0.752313 227 216 210
-2.50668 0.89182 0.457913 0.879247 0.0431219 -0.474411 213 207 196
-2.50355 0.888668 0.465354 0.938985 0.186981 -0.288695 243 239 225
-2.496 0.891114 0.493126 0.8172 0.470844 -0.3324 250 250 243
-2.49063 0.888952 0.501992 0.786055 0.393827 -0.476464 253 252 249
-2.49901 0.889769 0.519438 0.982039 -0.134026 0.132801 254 254 253
-2.50287 0.893929 0.535446 0.831278 -0.555856 -0.000440359 254 255 253
-2.48983 0.893688 0.565951 0.715283 0.159839 -0.68031 248 248 243
-2.48075 0.88839 0.569967 0.795174 0.4005 -0.4553 250 251 245
-2.47057 0.89018 0.606955 0.99302 0.114669 -0.0276092 254 255 251
-2.48394 0.904814 0.707805 0.913602 -0.377513 0.151049 224 222 206
-2.48222 0.905234 0.722882 0.931625 0.311668 -0.186918 250 250 239
-2.58089 0.912422 0.329711 0.770642 0.161554 -0.616451 93 99 100
-2.57645 0.909902 0.332671 0.849191 0.382316 -0.364292 103 111 112
-2.51458 0.894203 0.412339 0.664318 -0.493127 -0.5617 135 124 109
-2.5091 0.896672 0.417564 0.747659 -0.271666 -0.605974 105 93 78
-2.50717 0.891559 0.422959 0.936425 -0.350795 -0.00711644 211 207 198
-2.50669 0.89567 0.429274 0.908443 -0.352388 0.224842 180 173 160
-2.50778 0.892389 0.436883 0.988543 0.0276596 -0.148382 214 208 201
-2.50696 0.89721 0.445014 0.978647 0.0197469 -0.204596 157 145 133
-2.50441 0.896565 0.464567 0.890991 0.15823 -0.425557 182 169 155
-2.50451 0.896387 0.48574 0.897375 -0.2228 -0.380891 251 249 241
-2.49944 0.895684 0.493834 0.904167 0.373407 -0.207484 247 244 237
-2.4996 0.901248 0.502917 0.906993 0.340708 -0.247552 236 229 219
-2.49545 0.896949 0.51206 0.928773 0.242319 -0.280468 250 249 243
-2.5014 0.898749 0.520431 0.902127 -0.383436 0.197849 254 254 250
-2.50318 0.899996 0.53115 0.852226 -0.473998 0.221442 254 254 251
-2.50357 0.903655 0.541099 0.879913 -0.473944 -0.0336233 250 252 248
-2.50453 0.901571 0.551958 0.893151 -0.448827 -0.0289022 252 253 250
-2.50226 0.904504 0.557539 0.9499 -0.303699 -0.0738731 245 246 241
-2.49795 0.905958 0.563768 0.665844 -0.27755 -0.692545 241 242 237
-2.48534 0.897962 0.569951 0.807088 0.387674 -0.445329 228 230 222
-2.4663 0.894506 0.597241 0.978265 -0.0237182 -0.205998 248 248 242
-2.46841 0.892466 0.610607 0.993419 0.110905 -0.0285944 255 255 252
-2.46915 0.893772 0.624161 0.703073 0.15771 -0.693409 250 250 247
-2.46179 0.895843 0.636007 0.672314 0.397587 -0.624434 244 244 242
-2.4801 0.907376 0.715108 0.932068 0.31029 -0.187001 243 242 229
-2.48531 0.914523 0.722883 0.931695 0.310893 -0.187857 241 238 227
-2.52748 0.908074 0.40012 0.977248 0.209972 -0.0299615 67 57 49
-2.51174 0.901445 0.413322 0.967515 -0.245991 -0.0583349 90 77 64
-2.50674 0.903139 0.417552 0.994934 -0.00324625 0.100481 76 64 56
-2.5029 0.898127 0.4229 0.901438 -0.364399 0.233714 96 85 69
-2.50752 0.904753 0.428823 0.989532 0.144224 0.00514224 80 67 57
-2.50731 0.900576 0.436082 0.993803 0.107214 0.0293387 150 139 125
-2.51043 0.907273 0.444883 0.901723 0.377563 -0.210574 105 94 80
-2.51221 0.905317 0.455339 0.900948 0.374262 -0.219594 113 100 83
-2.51322 0.903852 0.464217 0.885067 0.293978 -0.360877 134 121 105
-2.50264 0.905681 0.478141 0.664414 -0.52291 -0.533967 120 102 87
-2.50552 0.906676 0.47837 0.990685 -0.00969791 -0.135826 123 106 86
-2.50647 0.909963 0.484738 0.921263 0.342106 -0.185035 118 101 80
-2.50376 0.904212 0.487046 0.765176 0.430413 -0.4788 163 141 125
-2.50326 0.905669 0.49383 0.916925 0.352222 -0.187587 185 169 152
-2.49951 0.90725 0.512101 0.904844 0.337481 -0.259548 172 162 151
-2.49875 0.905701 0.520434 0.914248 -0.351086 0.202209 210 203 197
-2.50299 0.911504 0.528534 0.989659 0.142067 -0.0197996 182 175 166
-2.5027 0.912428 0.531708 0.973857 0.213769 -0.0768402 175 167 158
-2.50159 0.908054 0.53819 0.99891 0.046668 0.000529885 223 222 217
-2.50744 0.914824 0.546424 0.979253 -0.163285 -0.120008 194 187 179
-2.50237 0.908814 0.552121 0.974826 -0.177463 -0.134985 227 228 221
-2.50246 0.91349 0.557374 0.94077 -0.2703 -0.204669 191 188 181
-2.49219 0.908308 0.570237 0.705196 0.459973 -0.539559 215 213 208
-2.49128 0.911532 0.577698 0.908133 -0.0282718 -0.417727 188 186 179
-2.48966 0.908293 0.585652 0.466783 0.110438 -0.877449 233 233 227
-2.48428 0.909894 0.592796 0.307059 -0.084707 -0.947913 204 203 195
-2.48095 0.90358 0.594263 0.303369 -0.0925626 -0.948367 246 248 239
-2.47321 0.902919 0.595225 0.91968 0.0226628 -0.392014 225 227 219
-2.47174 0.90243 0.61406 0.993299 0.111879 -0.0289888 252 253 250
-2.47843 0.911497 0.625722 0.872341 -0.256772 -0.416039 246 246 240
-2.46579 0.902455 0.628036 0.698385 0.476233 -0.534284 248 248 243
-2.45969 0.903023 0.642526 0.696576 0.479576 -0.533657 208 206 201
-2.47727 0.913134 0.680361 0.745765 -0.665904 -0.0201548 238 237 230
-2.49882 0.928101 0.720559 0.998443 -0.0411213 0.0376874 205 201 188
-2.48843 0.923871 0.722882 0.931507 0.310531 -0.189381 208 203 191
-2.4976 0.925097 0.765315 0.892835 0.222443 -0.391619 239 242 234
-2.53192 0.916481 0.410239 0.902892 0.379284 -0.202311 57 48 46
-2.51413 0.915007 0.450227 0.989532 -0.0684804 0.12703 66 56 48
-2.5161 0.911658 0.456795 0.977778 -0.172294 0.119437 86 73 59
-2.51066 0.913015 0.472925 0.984561 -0.111014 0.135336 77 62 51
-2.50687 0.915603 0.493815 0.920679 0.343356 -0.185623 101 83 69
-2.50351 0.911733 0.515479 0.876349 0.409009 -0.25441 141 130 117
-2.50755 0.918749 0.539624 0.97732 -0.173814 -0.120975 123 111 100
-2.50708 0.922988 0.546848 0.96578 -0.242616 -0.0916836 102 90 81
-2.50729 0.919095 0.553399 0.970031 -0.222672 -0.0972524 139 130 118
-2.50197 0.921985 0.567538 0.7263 0.295986 -0.620388 112 104 95
-2.50153 0.917118 0.572295 0.50963 0.267853 -0.817638 158 153 146
-2.50153 0.917118 0.572295 0.50963 0.267853 -0.817638 158 153 146
-2.49274 0.918877 0.590265 0.765752 0.362412 -0.531301 136 130 123
-2.48037 0.913456 0.602974 0.946963 0.14179 -0.28837 172 170 162
-2.47793 0.911722 0.626903 0.916788 -0.147865 -0.370993 246 246 239
-2.47954 0.918968 0.627481 0.843779 0.360825 -0.397293 191 188 177
-2.47431 0.914966 0.632781 0.607866 -0.116184 -0.785494 241 237 232
-2.47701 0.916702 0.637065 0.791857 0.459316 -0.402482 236 235 226
-2.47642 0.915624 0.634063 0.716828 0.463481 -0.520905 242 238 233
-2.47835 0.918866 0.678958 0.729614 -0.683486 -0.0225798 234 236 230
-2.47401 0.915489 0.686207 0.794092 -0.607063 -0.0298716 246 245 236
-2.49106 0.927796 0.71456 0.777038 0.494624 -0.389307 198 194 182
-2.50355 0.939306 0.749939 0.964964 -0.249392 0.0815348 183 186 180
-2.50392 0.939422 0.749902 0.955079 -0.270065 0.122022 184 185 180
-2.5062 0.934456 0.753619 0.999716 -0.013365 0.0197216 217 219 210
-2.50707 0.940664 0.763164 0.877517 -0.478842 -0.0259577 210 217 212
-2.50882 0.937397 0.769538 0.905574 -0.423249 0.0282245 207 214 204
-2.50249 0.942601 0.791519 0.258905 -0.0154372 -0.965779 217 226 232
-2.516 0.919464 0.467475 0.982075 -0.123478 0.142413 64 52 46
-2.52251 0.925884 0.475002 0.984336 -0.106885 0.140209 59 48 45
-2.51617 0.922435 0.485763 0.925648 0.337556 -0.170975 66 52 47
-2.51312 0.9237 0.503957 0.918995 0.347714 -0.185857 82 68 60
-2.51358 0.925197 0.534067 0.899455 0.376213 -0.22236 89 77 65
-2.51376 0.929994 0.555089 0.888525 -0.458484 -0.0177482 85 79 70
-2.49817 0.923659 0.576505 0.495739 0.277487 -0.822948 112 105 97
-2.48507 0.925153 0.607659 0.968421 0.225514 -0.106321 94 89 78
-2.48528 0.923348 0.61985 0.885998 0.242374 -0.3953 118 114 98
-2.4805 0.926545 0.636854 0.8217 0.457811 -0.339437 134 133 121
-2.48024 0.925893 0.650068 0.992016 -0.126034 0.00452629 164 165 153
-2.48733 0.932882 0.675586 0.968595 -0.221305 0.113351 126 127 116
-2.48205 0.925535 0.677879 0.977658 -0.0544192 -0.203036 206 208 202
-2.47641 0.927212 0.683998 0.673505 -0.739102 -0.0108814 164 166 161
-2.49973 0.944344 0.733402 0.896163 -0.420539 0.141562 145 150 145
-2.50245 0.94121 0.740179 0.997215 -0.038491 -0.0638757 204 207 204
-2.50235 0.942844 0.743475 0.957054 -0.288369 0.0298687 179 183 182
-2.50157 0.946593 0.749818 0.928329 -0.354835 0.110893 144 151 154
-2.50153 0.946503 0.749927 0.942622 -0.331431 0.0402176 144 152 154
-2.50444 0.943637 0.75664 0.94592 -0.297961 0.128276 168 176 177
-2.50442 0.943655 0.756417 0.862474 -0.478725 0.164197 167 175 176
-2.50536 0.948391 0.762981 0.957213 -0.28665 0.0396759 152 166 174
-2.5072 0.944633 0.769377 0.999819 0.0182952 -0.00527987 170 185 187
-2.50734 0.945137 0.769695 0.965203 -0.23796 0.108439 168 183 186
-2.50643 0.950904 0.792275 0.676965 -0.619035 -0.398138 199 217 231
-2.50703 0.953555 0.808438 0.793038 -0.227547 -0.565078 186 217 240
-2.53078 0.940991 0.536545 0.795419 -0.145242 -0.588399 64 54 52
-2.50991 0.941024 0.605236 0.578695 -0.224876 -0.783928 89 84 81
-2.47851 0.930639 0.632365 0.954622 0.257715 -0.149262 98 96 89
-2.47911 0.929337 0.643416 0.99395 -0.0849878 0.0695791 120 120 108
-2.48032 0.933769 0.650321 0.935631 0.277888 -0.217652 99 99 90
-2.49605 0.94708 0.726994 0.967308 -0.230753 0.10521 112 119 116
-2.50054 0.946205 0.736934 0.927748 -0.360608 0.0961564 132 137 134
-2.49986 0.950005 0.743451 0.877835 -0.453163 0.155075 127 135 137
-2.50546 0.952242 0.757842 0.946932 -0.296539 0.124032 138 149 155
-2.50439 0.952014 0.769458 0.682516 -0.712262 0.163872 148 166 175
-2.50591 0.95883 0.793746 0.681493 -0.608641 -0.406354 175 193 204
-2.50638 0.954006 0.799961 0.266012 -0.962539 -0.0525047 180 209 230
-2.50109 0.956343 0.812234 0.554583 -0.107385 -0.82517 186 212 235
-2.4524 0.950581 0.936265 0.313162 0.204975 -0.927316 232 240 241
-2.48095 0.93469 0.623801 0.934448 0.306913 -0.180584 101 102 102
-2.47588 0.932874 0.625028 0.956396 0.256034 -0.140547 102 103 103
-2.48716 0.942514 0.633724 0.938133 0.298826 -0.174955 113 118 118
-2.48426 0.938287 0.642186 0.937261 0.299891 -0.177783 102 102 99
-2.48566 0.941484 0.66009 0.925256 0.321326 -0.201622 102 105 104
-2.46095 0.947762 0.791241 0.464239 -0.881133 0.0899293 157 171 174
-2.48508 0.95342 0.807778 0.597561 -0.6941 -0.40143 167 189 205
-2.485 0.958488 0.818124 0.318328 -0.907891 -0.272764 167 179 191
-2.47959 0.951732 0.813395 0.684481 -0.714027 0.147144 170 196 215
-2.48242 0.954534 0.824761 0.325983 -0.930678 -0.166052 173 198 220
-2.45354 0.942643 0.825221 0.433929 -0.898284 0.069213 182 212 232
-2.45442 0.947763 0.833975 0.624758 -0.77043 0.126944 173 198 213
-2.46595 0.953532 0.848972 0.545958 -0.830763 0.108454 180 209 228
-2.53909 0.956821 0.524599 0.20951 -0.976745 -0.0455499 89 89 90
-2.52043 0.95398 0.532561 0.541472 -0.839281 0.0491587 108 110 112
-2.51372 0.951498 0.544411 0.210875 -0.976903 0.0345347 108 111 112
-2.5091 0.961641 0.642159 0.20655 -0.965447 -0.158901 137 142 145
-2.51364 0.96572 0.673996 0.844763 -0.533374 0.0434399 132 139 140
-2.50653 0.964591 0.744577 0.797295 -0.577661 0.175009 143 153 153
-2.51189 0.97154 0.753425 0.764166 -0.619056 0.181165 149 159 160
-2.45487 0.948904 0.795213 0.518579 -0.847929 0.109963 155 167 168
-2.45293 0.95262 0.791195 0.552904 -0.824428 0.120892 154 163 162
-2.44922 0.949972 0.798181 0.619666 -0.777464 0.107536 155 165 167
-2.44631 0.947686 0.80717 0.820558 -0.568331 -0.0607061 164 172 176
-2.4424 0.948517 0.808867 0.82087 -0.567702 -0.0623474 164 171 174
-2.44568 0.945977 0.819929 0.429778 -0.900283 0.0691517 166 181 187
-2.43061 0.942293 0.825106 0.743852 -0.666232 -0.0530975 168 179 184
-2.45696 0.953462 0.841215 0.624836 -0.770367 0.12694 167 185 194
-2.44557 0.960588 0.93133 0.681385 -0.176321 -0.71037 207 240 253
-2.44864 0.95822 0.939223 0.31326 0.204992 -0.927279 215 241 252
-2.4229 0.95352 0.956626 0.893343 -0.425091 -0.145725 246 246 245
-2.57505 0.968085 0.348395 0.271458 -0.911904 -0.307802 108 125 128
-2.52651 0.96282 0.51153 0.18584 -0.981726 -0.0409644 120 125 127
-2.51875 0.956315 0.514069 0.226529 -0.969197 -0.0966556 115 119 121
-2.52123 0.960831 0.523853 0.18837 -0.969475 -0.156956 120 124 125
-2.50889 0.956327 0.539035 0.212918 -0.976466 0.0343373 124 128 128
-2.50265 0.954064 0.550878 0.207762 -0.977627 0.0328806 125 129 130
-2.51201 0.958526 0.565891 0.219991 -0.974663 0.0404531 125 130 131
-2.50475 0.961742 0.631467 0.165336 -0.986205 -0.00802976 141 148 150
-2.51143 0.971301 0.668003 0.762698 -0.64667 0.0104503 144 152 151
-2.50768 0.969254 0.688603 0.597907 -0.782947 0.17176 145 155 153
-2.50865 0.97303 0.702893 0.177747 -0.984025 -0.010082 149 159 157
-2.50765 0.968733 0.712254 0.865368 -0.468122 0.178886 143 153 153
-2.5031 0.971124 0.717926 0.811083 -0.562454 0.160591 150 159 160
-2.5035 0.975327 0.739543 0.597016 -0.787725 0.151857 156 165 165
-2.50856 0.97877 0.75397 0.391351 -0.915769 0.0906123 156 167 167
-2.51379 0.976046 0.762207 0.436873 -0.895351 0.0865386 152 163 164
-2.44453 0.950915 0.800813 0.824637 -0.562383 -0.0608214 162 168 171
-2.44839 0.954504 0.795647 0.650363 -0.746256 0.141879 155 162 162
-2.44213 0.953724 0.807172 0.820316 -0.568581 -0.0616252 162 168 169
-2.43772 0.949226 0.814618 0.21664 -0.864168 -0.454182 135 140 142
-2.43045 0.948015 0.82052 0.0414565 -0.852307 -0.521396 167 169 168
-2.45007 0.95897 0.841219 0.624762 -0.770375 0.127259 162 171 169
-2.41735 0.944449 0.828094 0.353356 -0.576326 -0.736877 164 171 169
-2.43999 0.963025 0.936736 0.782693 -0.228337 -0.579011 200 232 245
-2.44019 0.965558 0.94054 0.829502 0.335244 -0.446698 198 221 238
-2.44365 0.97054 0.945387 0.536707 0.371672 -0.757499 188 206 222
-2.43262 0.965945 0.943606 0.269666 0.0549183 -0.961387 191 208 224
-2.42309 0.959982 0.949714 0.844799 -0.421977 -0.329014 214 228 239
-2.41399 0.953674 0.961326 0.405199 0.351997 -0.843748 236 232 233
-2.40906 0.955298 0.968737 0.693193 -0.654834 -0.301124 234 233 233
-2.40208 0.956058 0.971727 0.839611 -0.472362 -0.268192 217 222 224
-2.40447 0.951344 0.978993 0.672056 -0.736587 -0.0760249 251 251 245
-2.40365 0.951463 0.982682 0.8591 -0.496029 -0.126105 251 252 245
-2.40364 0.957973 0.996898 0.618889 -0.781906 -0.0748317 247 249 246
-2.33537 0.939589 1.09699 0.562771 -0.365893 -0.741223 245 242 232
-2.52809 0.962408 0.485395 0.201533 -0.972871 -0.113605 122 132 131
-2.52997 0.965579 0.49549 0.328853 -0.911037 -0.248731 124 132 132
-2.50826 0.959746 0.497408 0.179766 -0.981336 -0.0682851 130 136 135
-2.51428 0.961307 0.508689 0.154134 -0.987826 -0.0210537 130 132 134
-2.50814 0.958617 0.507952 0.291205 -0.952949 -0.0841889 132 133 134
-2.5071 0.957846 0.522955 0.160115 -0.987091 0.00379764 127 130 131
-2.50357 0.960735 0.531481 0.18638 -0.982289 0.019259 132 135 135
-2.50529 0.96216 0.547022 0.208057 -0.977574 0.0325827 133 136 136
-2.50867 0.964076 0.560802 0.251161 -0.967756 0.0191508 135 139 140
-2.51423 0.966007 0.572668 0.390687 -0.913325 0.1149 133 139 139
-2.50762 0.964146 0.573665 0.225906 -0.973134 0.0444709 135 141 141
-2.5248 0.977187 0.610625 0.440984 -0.885862 0.144158 144 151 151
-2.51821 0.975765 0.621077 0.477134 -0.864481 0.158166 151 156 157
-2.49948 0.966418 0.626251 0.162451 -0.986706 -0.00462502 150 157 157
-2.49996 0.970375 0.635444 0.395466 -0.91091 0.117681 153 158 158
-2.50243 0.967224 0.641984 0.920592 -0.350196 0.17284 148 155 156
-2.50837 0.974016 0.661343 0.782621 -0.621751 -0.0304958 149 157 155
-2.50528 0.976759 0.668146 0.655253 -0.75501 -0.024567 153 160 158
-2.5109 0.972851 0.673428 0.576111 -0.801384 -0.160869 147 153 154
-2.50633 0.972405 0.679542 0.426955 -0.893952 -0.136236 151 157 158
-2.50347 0.973222 0.681513 0.368211 -0.927409 -0.0658298 155 160 161
-2.50338 0.977231 0.684394 0.371769 -0.923108 0.0982829 158 165 163
-2.50312 0.971853 0.696294 0.547829 -0.836585 0.00302929 152 161 160
-2.49744 0.971337 0.701139 0.499432 -0.856589 0.129706 155 162 162
-2.49747 0.972768 0.710512 0.858402 -0.481398 0.177207 156 163 163
-2.49656 0.976753 0.717173 0.841314 -0.511724 0.174153 159 164 163
-2.50079 0.978464 0.732329 0.884421 -0.466683 -0.00271238 165 171 172
-2.50095 0.979106 0.747292 0.57648 -0.802301 0.154864 159 167 167
-2.43021 0.958279 0.804759 0.769597 -0.636538 -0.0503916 158 162 160
-2.43735 0.973668 0.943912 0.73053 0.0633553 -0.679935 177 184 192
-2.41976 0.968629 0.950946 0.934774 -0.318572 -0.157194 188 193 199
-2.41846 0.96279 0.96564 0.457801 -0.886176 -0.0714879 205 214 219
-2.41084 0.962953 0.966961 0.118976 -0.273842 -0.954387 192 202 210
-2.39908 0.960775 0.98181 0.905573 -0.381144 -0.186187 189 200 205
-2.39909 0.961585 1.00474 0.887069 -0.441271 -0.135605 220 226 225
-2.4006 0.963672 1.03108 0.883897 -0.447305 -0.136545 237 235 230
-2.39402 0.961161 1.0549 -0.0243605 -0.48647 -0.873358 243 240 229
-2.37982 0.961937 1.06223 -0.0543897 -0.690638 -0.721152 234 234 223
-2.34008 0.948927 1.09739 0.625298 0.313387 -0.714696 229 231 227
-2.57637 0.979754 0.326612 0.3917 -0.772928 -0.499153 121 142 143
-2.51724 0.967098 0.490312 0.375779 -0.750834 -0.543174 134 140 138
-2.48689 0.956686 0.494308 0.232134 -0.928415 -0.290104 139 140 136
-2.48613 0.956713 0.505534 0.363026 -0.931699 0.0121955 138 140 137
-2.48689 0.956761 0.505287 0.335204 -0.942123 0.00644664 138 140 137
-2.49186 0.958289 0.51495 0.215526 -0.976106 -0.027676 137 139 136
-2.49193 0.962374 0.525178 0.179699 -0.98368 0.00902664 139 140 138
-2.50556 0.969923 0.565675 0.335378 -0.935873 0.107999 141 144 142
-2.48952 0.967749 0.568727 0.403988 -0.908888 -0.103521 150 149 146
-2.51669 0.980068 0.605483 0.589881 -0.806962 0.0292077 148 153 152
-2.51751 0.981679 0.614849 0.467086 -0.876351 0.117641 154 158 157
-2.50298 0.974663 0.650185 0.539362 -0.82545 0.166498 152 158 156
-2.50339 0.976091 0.649144 0.568751 -0.803029 0.177952 152 158 157
-2.50312 0.979708 0.660705 0.914996 -0.365117 0.171674 154 160 158
-2.49655 0.979399 0.666205 0.828609 -0.559677 0.0129369 160 165 162
-2.50313 0.980304 0.662212 0.911235 -0.373548 0.173527 155 161 158
-2.50015 0.976715 0.673853 0.528289 -0.848755 -0.0229224 159 164 164
-2.49448 0.977588 0.679238 0.895045 -0.410058 0.175349 163 169 166
-2.49423 0.975792 0.686265 0.836712 -0.547118 -0.0239716 163 167 167
-2.4893 0.976618 0.688704 0.839364 -0.542982 -0.0252639 166 169 169
-2.4989 0.97739 0.697613 0.318807 -0.717785 -0.618989 160 165 164
-2.48764 0.972403 0.694268 0.327381 -0.702538 -0.631872 169 167 167
-2.49157 0.983097 0.717269 0.777042 -0.600649 0.188217 159 164 160
-2.49679 0.980784 0.726174 0.636496 -0.69982 -0.32423 165 169 168
-2.49602 0.984439 0.732462 0.885648 -0.434155 0.164734 166 168 167
-2.49099 0.983346 0.747533 0.250001 -0.967865 0.0271597 162 165 166
-2.43676 0.974979 0.940535 0.728 -0.441681 -0.524341 141 145 148
-2.43175 0.977914 0.949268 0.226307 0.0567717 -0.9724 175 177 180
-2.43126 0.977503 0.948412 0.29194 0.169551 -0.941288 140 142 144
-2.42296 0.976842 0.951589 0.924336 -0.352791 -0.1454 180 182 183
-2.41056 0.972348 0.970993 0.138441 -0.0987909 -0.985431 182 185 192
-2.39511 0.964824 0.990253 0.911241 -0.381012 -0.156428 175 187 193
-2.39539 0.965955 1.01423 0.887134 -0.44042 -0.137925 192 200 206
-2.3969 0.968134 1.04095 0.876912 -0.461304 -0.134997 234 235 231
-2.39316 0.968288 1.05071 0.062315 -0.649849 -0.757504 241 242 238
-2.3699 0.964247 1.06953 0.250797 -0.957772 -0.140622 210 218 220
-2.3459 0.956988 1.09789 0.758974 -0.256763 -0.598358 208 219 226
-2.33178 0.952306 1.13734 0.653656 0.0765645 -0.752909 221 230 231
-2.30294 0.939563 1.1301 -0.0371597 -0.365646 -0.930012 204 227 242
-2.30707 0.97931 1.49033 0.728351 0.07577 -0.681002 108 139 166
-2.31137 0.979957 1.49315 -0.0961915 -0.149242 -0.984111 108 139 166
-2.31542 0.981934 1.49595 -0.0879907 -0.187906 -0.978238 108 139 166
-2.59677 0.992217 0.30356 0.336148 -0.853271 -0.398665 137 164 170
-2.58597 0.983656 0.310831 0.344781 -0.870304 -0.351705 132 160 163
-2.57849 0.984982 0.316558 0.381595 -0.838346 -0.38931 126 151 152
-2.56814 0.980076 0.3331 0.335602 -0.871602 -0.357324 115 134 136
-2.54277 0.974333 0.345663 0.507558 -0.675101 -0.535371 109 125 127
-2.49076 0.960922 0.484999 0.233967 -0.925976 -0.296357 141 141 137
-2.4783 0.960404 0.499908 0.243243 -0.922238 -0.300515 142 143 138
-2.4776 0.960259 0.510855 0.366531 -0.925079 0.0994163 142 143 139
-2.47733 0.961269 0.521339 0.637308 -0.737648 0.222967 142 142 139
-2.48252 0.964959 0.531229 0.453422 -0.875508 0.167017 142 143 139
-2.49511 0.97666 0.574669 0.210901 -0.933979 -0.288453 149 151 147
-2.50881 0.984531 0.604319 0.374013 -0.833213 -0.407272 154 157 155
-2.50115 0.982761 0.606682 0.527172 -0.800641 -0.284716 159 161 159
-2.4898 0.979393 0.670028 0.904165 -0.407633 0.127754 163 168 164
-2.49236 0.986447 0.670613 0.961447 -0.263916 0.0772526 162 164 161
-2.49011 0.982044 0.686234 0.846471 -0.531795 -0.0260853 166 170 166
-2.481 0.985842 0.741417 0.251833 -0.96729 0.0304826 161 161 159
-2.48148 0.995573 0.849075 0.0272681 -0.92135 -0.387776 156 156 154
-2.47371 0.996219 0.851552 0.0386654 -0.952802 -0.30112 153 153 150
-2.42082 0.982599 0.9454 0.590638 -0.804944 -0.0566716 180 180 180
-2.43 0.983128 0.942564 0.616781 -0.785352 -0.0529495 181 179 180
-2.41911 0.980659 0.963769 0.622304 -0.780339 -0.061721 177 176 178
-2.38818 0.973554 1.00777 0.656074 -0.748672 -0.0951676 161 169 175
-2.39083 0.976582 1.0158 0.68912 -0.719821 -0.0834936 163 170 175
-2.39545 0.973746 1.03128 0.872999 -0.469021 -0.133761 175 184 191
-2.39153 0.97324 1.04213 0.89477 -0.293852 -0.336212 184 191 198
-2.36973 0.971093 1.0481 0.298551 -0.948029 -0.110036 155 163 172
-2.38557 0.972955 1.05101 0.570192 -0.808479 -0.145752 180 187 196
-2.36864 0.965545 1.05608 -0.012386 -0.910656 -0.412979 177 192 200
-2.36436 0.970353 1.06652 0.763274 -0.410605 -0.498815 160 177 191
-2.36321 0.964952 1.073 0.269457 -0.950623 -0.153978 194 208 220
-2.35733 0.96648 1.07978 0.318169 -0.881719 -0.34834 184 201 219
-2.35141 0.963025 1.09497 0.75996 -0.0971974 -0.642661 193 213 230
-2.34184 0.960782 1.10647 0.835259 -0.530307 -0.145318 196 219 241
-2.33766 0.964232 1.13354 0.940097 0.0410111 -0.338431 198 225 248
-2.33766 0.964232 1.13354 0.940097 0.0410111 -0.338431 198 225 248
-2.32871 0.961341 1.14337 0.306166 0.32369 -0.895258 195 227 249
-2.31438 0.98609 1.50105 -0.0784862 -0.205965 -0.975407 107 137 165
-2.30159 0.984992 1.49667 0.727473 0.0751106 -0.682012 107 137 163
-2.26391 0.970042 1.55222 0.0817931 -0.975394 -0.204737 148 197 235
-2.24889 0.968001 1.55249 0.15414 -0.968867 -0.193745 149 197 234
-2.2248 0.965241 1.61122 0.548317 -0.815765 -0.184057 144 193 231
-2.57213 0.989657 0.326606 0.789659 -0.340111 -0.51065 127 149 148
-2.56084 0.984033 0.341212 0.658734 -0.206999 -0.72334 118 136 137
-2.55863 0.986027 0.346396 0.424404 -0.709521 -0.562548 114 131 133
-2.55744 0.988535 0.346113 0.53947 -0.47727 -0.693675 116 133 135
-2.55581 0.986414 0.350311 0.473964 -0.602464 -0.64218 112 129 131
-2.55218 0.982 0.348686 0.473811 -0.606225 -0.638745 111 127 129
-2.48354 0.965923 0.4885 0.458116 -0.575971 -0.677043 142 143 138
-2.47202 0.962965 0.495175 0.540341 -0.391072 -0.745046 97 102 102
-2.47723 0.96846 0.497936 0.534905 -0.400435 -0.743995 98 103 102
-2.47567 0.967961 0.525742 0.707828 -0.667226 0.231924 143 142 138
-2.49123 0.978598 0.578986 0.206852 -0.935859 -0.285272 152 153 151
-2.50501 0.987069 0.587604 0.543869 -0.82858 0.132892 153 154 150
-2.50473 0.989223 0.598861 0.272572 -0.962103 -0.0079123 157 157 154
-2.50149 0.99037 0.605566 0.278899 -0.855144 -0.436971 160 161 158
-2.49177 0.986279 0.658111 0.756571 -0.171548 -0.631009 159 158 156
-2.4967 0.992405 0.65499 0.767023 -0.636738 -0.0789876 165 156 155
-2.48954 0.989331 0.663779 0.823448 -0.376676 -0.42432 162 162 159
-2.47491 0.985154 0.727271 0.320516 -0.93781 -0.133349 160 161 157
-2.47468 0.989821 0.734991 0.506045 -0.852809 0.12898 159 158 155
-2.48349 1.00269 0.84653 0.643746 -0.665089 -0.378481 163 160 159
-2.48187 1.0049 0.895041 0.935593 -0.17029 -0.309301 157 156 154
-2.4771 1.00643 0.902579 0.539883 -0.636521 -0.550787 168 165 163
-2.45306 1.00056 0.925513 0.634533 -0.771786 -0.0413979 179 176 174
-2.45461 1.00097 0.924925 0.556065 -0.814499 -0.16548 179 176 174
-2.44403 0.991597 0.927539 0.652567 -0.755877 -0.0529756 176 173 174
-2.4366 0.990317 0.930624 -0.0135285 -0.681538 -0.731657 174 172 170
-2.41968 0.989539 0.943574 0.197418 -0.109754 -0.974156 177 174 174
-2.41543 0.985106 0.954856 0.579791 -0.811355 -0.0744601 176 174 174
-2.40193 0.978832 0.964413 0.57274 -0.817313 -0.062995 179 179 178
-2.38546 0.978585 0.999308 0.698977 -0.702359 -0.134621 162 164 167
-2.38188 0.976347 1.01562 0.847205 -0.517179 -0.121529 163 169 172
-2.38177 0.976245 1.0154 0.852553 -0.507873 -0.123365 163 169 172
-2.38811 0.978884 1.03979 0.821003 -0.556974 -0.125435 162 170 176
-2.36359 0.974869 1.04988 0.554605 -0.827704 -0.085555 149 154 159
-2.36646 0.976602 1.0619 -0.059465 -0.72652 -0.684567 148 155 162
-2.35388 0.973942 1.07111 0.486539 -0.868837 -0.0916603 151 160 168
-2.35913 0.969756 1.07148 0.649961 -0.750453 -0.119882 163 178 195
-2.35041 0.968399 1.08813 0.600786 -0.662001 -0.448119 168 186 206
-2.35016 0.973836 1.09423 0.949157 -0.187478 -0.252887 156 170 185
-2.34352 0.969632 1.10386 0.836392 -0.528998 -0.143562 169 190 212
-2.33821 0.965812 1.11402 0.551773 0.543216 -0.632821 187 213 241
-2.32667 0.968231 1.14631 0.879988 0.213707 -0.424206 186 218 248
-2.3197 0.962278 1.1533 0.265146 0.277114 -0.923529 187 225 253
-2.32073 0.968393 1.165 0.929069 0.0633591 -0.364441 185 219 251
-2.31307 0.996918 1.49312 0.729396 0.0738605 -0.680093 114 142 169
-2.30298 0.990563 1.49404 -0.0952328 -0.138319 -0.985798 109 139 166
-2.30733 0.990941 1.49489 0.728542 0.0742686 -0.680963 111 140 167
-2.29609 0.990688 1.50301 0.726579 0.0746429 -0.683016 105 136 161
-2.23612 0.960765 1.5033 -0.180821 -0.389982 -0.902894 151 199 238
-2.22709 0.956428 1.50784 -0.16781 -0.754243 -0.634789 151 199 238
-2.2492 0.967325 1.52538 0.132896 -0.916577 -0.377128 177 213 241
-2.26551 0.976262 1.54512 0.125856 -0.972638 -0.195284 151 198 238
-2.23332 0.964377 1.54665 0.185976 -0.961904 -0.200384 149 197 234
-2.24203 0.968096 1.5631 0.242058 -0.879418 -0.409917 148 196 233
-2.23435 0.972056 1.58261 -0.0277576 -0.882783 -0.468961 147 195 233
-2.22803 0.970326 1.59078 0.279691 -0.94161 -0.187468 146 195 233
-2.57414 0.996394 0.318646 0.79026 -0.340713 -0.509317 138 162 162
-2.57133 0.994583 0.320285 0.792139 -0.274313 -0.545223 136 160 160
-2.5612 0.990701 0.334153 0.786288 -0.348344 -0.510302 127 148 147
-2.53259 0.983525 0.337768 0.538841 -0.607372 -0.583737 120 139 140
-2.53927 0.984388 0.346117 0.463795 -0.63107 -0.621808 114 131 132
-2.53579 0.980086 0.344254 0.55709 -0.549026 -0.623074 113 131 132
