ply
format ascii 1.0
comment PCL generated
element vertex 1407
property float x
property float y
property float z
element camera 0
property float view_px
property float view_py
property float view_pz
property float x_axisx
property float x_axisy
property float x_axisz
property float y_axisx
property float y_axisy
property float y_axisz
property float z_axisx
property float z_axisy
property float z_axisz
property float focal
property float scalex
property float scaley
property float centerx
property float centery
property int viewportx
property int viewporty
property float k1
property float k2
end_header
-0.05485291 0.74457824 2.1257737
-0.054722775 0.74958777 2.1230371
-0.055512529 0.75489002 2.1220305
-0.055972334 0.76056093 2.1221006
-0.05646459 0.76585346 2.1207294
-0.056967881 0.77139312 2.119297
-0.057959255 0.78516471 2.1162167
-0.057918284 0.79044515 2.1154816
-0.060407326 0.86874497 2.1124022
-0.06006743 0.87383401 2.1114643
-0.060047545 0.88011521 2.1129613
-0.060776565 0.88671899 2.1141474
-0.060829751 0.89301634 2.1144059
-0.060674202 0.90548831 2.114296
-0.060674477 0.90967637 2.1128876
-0.060863376 0.91634947 2.1131563
-0.061001897 0.93517607 2.1148374
-0.061125632 0.93993539 2.1145265
-0.061266519 0.9459368 2.1143258
-0.061516423 0.95258671 2.1162097
-0.061720151 0.98000908 2.1171598
-0.061952278 0.98574793 2.1171286
-0.061724644 0.99816495 2.1180232
-0.0090537276 0.55950034 2.3033645
-0.011720161 0.56149518 2.2891257
-0.021910226 0.57590699 2.2535372
-0.023354527 0.57998317 2.2458665
-0.025014414 0.58362919 2.2388082
-0.026382267 0.58765012 2.232713
-0.027630931 0.59171259 2.2261918
-0.029141333 0.59601736 2.2198789
-0.030611988 0.60047364 2.2144122
-0.031997222 0.60471749 2.2094355
-0.033207543 0.6092329 2.2040389
-0.034122396 0.61350906 2.1993809
-0.035153214 0.61796629 2.1940358
-0.03652145 0.62270641 2.190294
-0.037203912 0.62712771 2.1861854
-0.03848302 0.63178706 2.1816938
-0.039337356 0.63640153 2.1779501
-0.040203661 0.64101547 2.1739182
-0.041205447 0.64590979 2.170681
-0.041966621 0.65024853 2.1671338
-0.042743739 0.65521938 2.1635208
-0.043679751 0.66018015 2.160008
-0.04446673 0.66491693 2.1571712
-0.045162845 0.66971982 2.1542182
-0.045913555 0.67474353 2.1509762
-0.046564721 0.67964298 2.1488862
-0.047153093 0.68455654 2.1464207
-0.047960829 0.69016761 2.1442411
-0.048025779 0.69461221 2.1419067
-0.049030367 0.7002427 2.1404159
-0.049530469 0.70521712 2.1382957
-0.049886346 0.71075684 2.1368184
-0.050428808 0.7161119 2.1347821
-0.050978087 0.72094339 2.1326847
-0.051497512 0.72634989 2.1310456
-0.052006353 0.73139042 2.1300161
-0.052382924 0.73659605 2.1278391
-0.052930746 0.7417047 2.1261818
-0.052974887 0.74751884 2.1248276
-0.053679634 0.75235718 2.1233821
-0.054187775 0.75761402 2.1214371
-0.05469691 0.76282245 2.1200011
-0.055185746 0.76849228 2.118602
-0.055369951 0.77400923 2.1177099
-0.055569198 0.78194749 2.1146657
-0.056718215 0.78806913 2.115927
-0.05653711 0.79320675 2.1144822
-0.057300583 0.8094874 2.1115398
-0.058111254 0.86620212 2.1127174
-0.058176205 0.87184697 2.1127045
-0.058459576 0.87792051 2.1131518
-0.058419883 0.88393551 2.1130111
-0.058678333 0.88992333 2.1130383
-0.058901064 0.89573336 2.1139061
-0.058907837 0.90818495 2.1141961
-0.059123054 0.91394603 2.1145139
-0.059360098 0.91960669 2.1140995
-0.05951798 0.9349165 2.1150477
-0.059688531 0.9407413 2.1152723
-0.059261497 0.94609022 2.1144776
-0.059473261 0.95223057 2.1150913
-0.060164761 0.9800362 2.1166835
-0.060074456 0.98534161 2.1162527
-0.060457077 0.99131733 2.116569
-0.06029303 1.0133954 2.1185877
-0.059798732 1.0180353 2.1174145
-0.060053051 1.0425724 2.119318
-0.060947336 1.1189165 2.1214323
-0.061059654 1.1242392 2.1211648
-0.06051882 1.1338075 2.1196282
-0.0051750015 0.55870998 2.3120048
-0.0086877942 0.56121647 2.2976673
-0.011187847 0.56363446 2.2855885
-0.19335285 0.9379977 2.1991739
-0.018741768 0.57448989 2.2578886
-0.020762309 0.57800049 2.2506349
-0.022299888 0.58182418 2.2431824
-0.023666689 0.58606613 2.2359772
-0.025377659 0.58996278 2.2295086
-0.02655649 0.59394622 2.2232566
-0.027979665 0.59838033 2.2173057
-0.029224863 0.60270971 2.2122295
-0.030760631 0.60728544 2.2067215
-0.031885281 0.61146307 2.2014935
-0.032939702 0.61568338 2.1968443
-0.034126792 0.62054622 2.1924827
-0.035220828 0.62489474 2.1879482
-0.036426023 0.62972754 2.183882
-0.037119392 0.63419992 2.1799905
-0.038285621 0.63885409 2.1758804
-0.038970232 0.64338267 2.1722538
-0.039863713 0.64827591 2.1684897
-0.04073488 0.65281624 2.1652882
-0.041410953 0.65801787 2.1616638
-0.04242095 0.66262829 2.158953
-0.043133415 0.66739482 2.1550839
-0.044037994 0.67231303 2.152673
-0.044620477 0.67693651 2.1498082
-0.04541783 0.68218434 2.1474113
-0.04604084 0.68730849 2.1451268
-0.046623401 0.69224048 2.1426687
-0.047120351 0.69800031 2.1411068
-0.047584433 0.70270246 2.1390946
-0.048332918 0.71029538 2.136348
-0.048787065 0.71579558 2.1345947
-0.049395662 0.72106826 2.1332228
-0.049877983 0.72643483 2.1304669
-0.050459486 0.73177826 2.129158
-0.050986364 0.73683214 2.1276374
-0.051150471 0.74190849 2.1256852
-0.05195301 0.74986851 2.1229119
-0.052635316 0.75784892 2.1209803
-0.05300555 0.76343203 2.1195319
-0.053579524 0.76808804 2.1181147
-0.053761363 0.77398425 2.1176214
-0.054248329 0.78214371 2.1160924
-0.054869119 0.79015493 2.1145556
-0.056330379 0.82993072 2.1106613
-0.056527097 0.83579189 2.1105998
-0.057355687 0.8988446 2.1133544
-0.058380187 0.98238117 2.1156235
-0.002898196 0.55908221 2.312762
-0.0064960946 0.56129885 2.2991998
-0.018822337 0.57825673 2.2510812
-0.020454966 0.58217359 2.2432683
-0.021887781 0.58617061 2.2367256
-0.023447648 0.58979517 2.2299681
-0.024902083 0.59403068 2.2239625
-0.026338561 0.59865814 2.2179205
-0.027673384 0.60262358 2.2123194
-0.029071882 0.60725564 2.2070847
-0.03005622 0.61153501 2.2017767
-0.03128276 0.61580068 2.1970916
-0.032341506 0.62040418 2.1928496
-0.033346903 0.62498111 2.1880631
-0.034576539 0.62966704 2.183578
-0.035474189 0.63412952 2.1797166
-0.036335237 0.63865578 2.1756461
-0.037200045 0.64353442 2.1720452
-0.038340066 0.64818072 2.1682866
-0.03894278 0.6527611 2.1650941
-0.039858207 0.65773499 2.1612999
-0.040653516 0.66272372 2.1583788
-0.04162297 0.66741353 2.1550446
-0.042281684 0.67213577 2.1522088
-0.043262515 0.67699689 2.1491997
-0.043820735 0.68204445 2.1470633
-0.044449974 0.68748701 2.1447132
-0.044783454 0.69239163 2.1425011
-0.045545202 0.69793236 2.1405268
-0.045701195 0.70271063 2.1385505
-0.046509363 0.708058 2.1370406
-0.047053896 0.71304739 2.1347222
-0.047371268 0.71832436 2.1326225
-0.048197582 0.7234301 2.1316199
-0.048274685 0.72867888 2.1293952
-0.049082078 0.73391604 2.1278727
-0.049406577 0.73940456 2.1263046
-0.049954847 0.74454939 2.1243684
-0.050831929 0.75252479 2.1223769
-0.051445123 0.75798529 2.1211607
-0.051249173 0.76286966 2.1185927
-0.051971987 0.77078217 2.1170342
-0.053001232 0.7819286 2.1147656
-0.053215217 0.78737867 2.1142836
-0.053579096 0.7923643 2.1127477
-0.054208361 0.80927151 2.1106946
-0.054745652 0.82953823 2.1100543
-0.055067774 0.83566916 2.1108263
-0.056990832 0.98240304 2.1155298
-0.057007123 1.0794121 2.1174276
-0.057529163 1.160951 2.1198111
-0.00085884577 0.56014854 2.3167849
-0.0043281671 0.56182444 2.2997036
-0.0071165762 0.56403971 2.2859681
-0.0096974466 0.56750393 2.2777176
-0.012083215 0.57071376 2.2672241
-0.014143733 0.57438391 2.2581611
-0.016331902 0.5782004 2.2510538
-0.018018687 0.58200377 2.2422318
-0.019660464 0.58612227 2.2360423
-0.021913262 0.59057671 2.2305169
-0.022842763 0.59389752 2.2227368
-0.024091445 0.59839976 2.2169216
-0.025643254 0.60278171 2.2118528
-0.026995227 0.60703886 2.2064786
-0.028216172 0.61160338 2.2015836
-0.029365057 0.6158374 2.1973233
-0.030391932 0.62024617 2.1922326
-0.031646047 0.62504935 2.1876705
-0.032658566 0.62993157 2.183526
-0.033523999 0.634031 2.1788485
-0.03425822 0.63832939 2.1751943
-0.035481654 0.64344525 2.1716373
-0.036326073 0.64801687 2.1684904
-0.03711063 0.65296203 2.1646121
-0.03831353 0.65781122 2.1611075
-0.038658708 0.66229182 2.156877
-0.040185262 0.66759038 2.1557362
-0.040404204 0.67213053 2.1514044
-0.041757438 0.67761624 2.149802
-0.041683741 0.68194044 2.1460407
-0.042551905 0.68742174 2.1442213
-0.043179363 0.69225138 2.1428187
-0.044121966 0.69777471 2.1408603
-0.04397171 0.70242512 2.1377957
-0.045057964 0.70770949 2.1371741
-0.045453601 0.7130928 2.134707
-0.045859985 0.71871918 2.1321843
-0.046362221 0.7236287 2.1306722
-0.04686562 0.72883821 2.1292036
-0.047561377 0.7343995 2.1280942
-0.047880836 0.73920852 2.1261573
-0.04855793 0.74466956 2.1241627
-0.048768893 0.74920684 2.1221251
-0.049236156 0.75508332 2.120415
-0.049885843 0.76008868 2.1202583
-0.050102882 0.76583916 2.1184075
-0.05089172 0.77145565 2.1174488
-0.050808068 0.7768833 2.1151891
-0.051178586 0.78127718 2.1134746
-0.052026331 0.78772134 2.1144104
-0.052205257 0.79552829 2.1119564
-0.052322067 0.80068851 2.1112168
-0.052456181 0.80625504 2.1104703
-0.052661233 0.82168674 2.1111252
-0.052555937 0.82627302 2.1088223
-0.053289685 0.83251482 2.1095045
-0.05343255 0.83832484 2.1093056
-0.053092767 0.84425747 2.1094325
-0.05325767 0.85006034 2.1094294
-0.053334661 0.85554802 2.108633
-0.053625677 0.86203456 2.1099923
-0.05368774 0.86776859 2.1091025
-0.053895842 0.87352103 2.1096611
-0.054328419 0.88362145 2.1115494
-0.054500103 0.88900125 2.1114862
-0.054424126 0.90956628 2.1107757
-0.0539607 0.91479748 2.1096399
-0.054463625 0.92590344 2.1130495
-0.054809451 0.93093723 2.1129615
-0.054924201 0.93721515 2.1129909
-0.055171594 0.94278091 2.1125822
-0.055135582 0.94881475 2.112865
-0.055057488 0.95504391 2.1134257
-0.055362094 0.96088094 2.1128705
-0.055459622 0.98536956 2.1149464
-0.055644292 0.9911021 2.1147585
-0.054881629 0.99880785 2.113688
-0.055027377 1.004658 2.1135709
-0.054537687 1.009961 2.1125348
-0.055071041 1.0228655 2.1149113
-0.055396214 1.0346797 2.1156008
-0.056191798 1.0448855 2.117306
-0.05618979 1.0507891 2.1177442
-0.055924684 1.0942549 2.1180646
-0.05517273 1.1157368 2.115787
-0.055724155 1.1206362 2.1150463
-0.0036943678 0.5632636 2.2939405
-0.011361953 0.57282519 2.2636209
-0.013974402 0.57712293 2.2572696
-0.015772011 0.58086246 2.2485499
-0.017326934 0.58460999 2.2415009
-0.018952526 0.58863056 2.2342305
-0.020502379 0.59251505 2.2274747
-0.021908367 0.59664983 2.2212758
-0.023374308 0.601053 2.2154539
-0.024505625 0.6050967 2.2100868
-0.026067212 0.60974663 2.2046442
-0.027020145 0.6141355 2.1996806
-0.028135346 0.61833191 2.195147
-0.029284654 0.62285775 2.1906104
-0.030336484 0.62752074 2.1861775
-0.031474683 0.63238591 2.1815143
-0.032368112 0.63666815 2.1775093
-0.033163425 0.64121199 2.1736157
-0.034083288 0.64589483 2.1701026
-0.035329554 0.65095425 2.1662853
-0.035975598 0.65531951 2.1628294
-0.03686719 0.66029614 2.1596713
-0.037810251 0.66538543 2.1564541
-0.038431864 0.66989291 2.1534405
-0.03910302 0.6747396 2.1503093
-0.039981663 0.67977858 2.1478376
-0.040546544 0.68454272 2.1450326
-0.041255359 0.6898244 2.1427321
-0.041712072 0.69495726 2.1408756
-0.042436648 0.70041543 2.1388459
-0.04308214 0.70537984 2.1369302
-0.043379668 0.71044201 2.1352203
-0.044129368 0.71585232 2.132916
-0.044336539 0.72082716 2.1309111
-0.04511378 0.72609264 2.1291697
-0.045258973 0.73142028 2.1277649
-0.045998562 0.73643517 2.1258717
-0.046634465 0.7413739 2.1243181
-0.046900257 0.74720955 2.122561
-0.04725359 0.75200665 2.1208484
-0.047917478 0.75756663 2.1193793
-0.048323274 0.7626099 2.1180151
-0.048969876 0.76841283 2.1166167
-0.049086839 0.77371353 2.1155372
-0.049365744 0.77899837 2.1146474
-0.049736008 0.78433418 2.1132689
-0.050053131 0.78998452 2.1126344
-0.05025484 0.7953667 2.1119676
-0.05060491 0.80131149 2.1112654
-0.050822955 0.80633205 2.1096885
-0.051157214 0.81191796 2.1097155
-0.05149075 0.82392222 2.1097059
-0.05149918 0.82940531 2.108928
-0.051852763 0.8354817 2.109035
-0.052084334 0.84097898 2.1090078
-0.05181687 0.85084563 2.1099563
-0.052074291 0.85687232 2.1107929
-0.052115921 0.86282712 2.1106951
-0.052304711 0.86849248 2.1101537
-0.052399009 0.87449026 2.1110818
-0.052271787 0.88578665 2.1101344
-0.052400243 0.89176339 2.1100614
-0.052723881 0.9198125 2.1125886
-0.05300802 0.92548275 2.1126144
-0.053195853 0.93469071 2.1125662
-0.053019471 0.93931168 2.1117675
-0.052846961 0.94492406 2.1111517
-0.053359263 0.96147549 2.1132944
-0.053474385 0.98712176 2.1134214
-0.053721726 0.99348909 2.1135118
-0.053466264 0.99938089 2.1147177
-0.053302806 1.0060476 2.1147203
-0.053227931 1.0113765 2.1145937
-0.053479161 1.0180891 2.1155071
-0.053667672 1.0238967 2.1161644
-0.05395247 1.0300831 2.116544
-0.053984012 1.0358597 2.1166224
-0.053767715 1.047708 2.116909
-0.053882636 1.0534005 2.1167407
-0.053787999 1.0664072 2.1182528
-0.053764433 1.0704261 2.1168737
-0.053961523 1.076929 2.1175282
-0.054841619 1.0868977 2.1189892
-0.054797005 1.1759443 2.1207612
0.0063189468 0.55987889 2.3254733
0.0021783172 0.56158996 2.3098764
-0.0012372044 0.56317228 2.2932556
-0.0045375503 0.56640631 2.2849035
-0.0065457607 0.56967753 2.2735336
-0.0090155173 0.57309574 2.2640142
-0.011223271 0.57670683 2.2557385
-0.013102719 0.58058476 2.2478087
-0.015278956 0.58474708 2.2409849
-0.01675608 0.58855969 2.2341027
-0.018241746 0.59238493 2.2272639
-0.019908147 0.59683633 2.2213969
-0.021335488 0.60112262 2.2158396
-0.022528477 0.60506648 2.2095859
-0.023808027 0.60971153 2.2044294
-0.024874683 0.61397582 2.1995983
-0.026192525 0.61850029 2.1949756
-0.027556118 0.62282944 2.1900926
-0.028620278 0.62775034 2.1862285
-0.0296013 0.63250577 2.1817179
-0.030362483 0.6368717 2.1773951
-0.031745989 0.64133418 2.1748269
-0.032363728 0.64590269 2.1691332
-0.033552755 0.65109551 2.1667333
-0.034269668 0.6554898 2.1627746
-0.035275806 0.66061372 2.1598794
-0.036160719 0.66558838 2.156563
-0.036566436 0.66997665 2.1531107
-0.037143316 0.67444336 2.149936
-0.038336031 0.67952651 2.1479766
-0.038875073 0.68465942 2.1449783
-0.03962753 0.68984389 2.1426685
-0.040217072 0.69516206 2.1418235
-0.041086428 0.70051247 2.1391559
-0.041590407 0.70541793 2.1376493
-0.041985825 0.71050346 2.1351404
-0.042501196 0.71576142 2.1327872
-0.042897023 0.72133285 2.131156
-0.043398682 0.72624218 2.1296446
-0.043901324 0.73145163 2.1281769
-0.044306226 0.73692858 2.1248174
-0.044683851 0.74191403 2.123208
-0.045779403 0.74777025 2.1225605
-0.045681976 0.75174046 2.1201751
-0.046505693 0.75734091 2.1195507
-0.046684053 0.76278085 2.1173248
-0.047160987 0.77044547 2.1155243
-0.047837842 0.77949494 2.114172
-0.048144009 0.78466988 2.112381
-0.048463635 0.78960705 2.1124644
-0.049975291 0.82662225 2.1085889
-0.049961228 0.83232313 2.1086202
-0.051034011 0.88039225 2.1105223
0.006899138 0.5606609 2.3176565
0.0026732027 0.5624541 2.3019693
-0.00073025021 0.5645991 2.2890558
-0.0061155781 0.5719595 2.2713912
-0.0079226727 0.57509917 2.2606134
-0.010148587 0.57887924 2.2519438
-0.012491513 0.58316565 2.2458415
-0.014161505 0.58700943 2.237818
-0.01583842 0.5911079 2.2318406
-0.017362475 0.59503281 2.2254286
-0.019048927 0.59923989 2.2196419
-0.020428564 0.60347259 2.2133417
-0.021671379 0.60770512 2.2079256
-0.022959797 0.6121859 2.203032
-0.023848215 0.61658281 2.1983337
-0.025183046 0.62113905 2.1932578
-0.026239038 0.62527871 2.1881018
-0.027394377 0.63005579 2.184006
-0.028482046 0.63466597 2.1798084
-0.029416896 0.63923597 2.1757033
-0.030418547 0.64370567 2.1725702
-0.03115817 0.64848036 2.1682558
-0.032041404 0.65311831 2.1648979
-0.032946274 0.65819812 2.1612511
-0.033952028 0.66285801 2.1577837
-0.03463712 0.66746277 2.1549249
-0.035497945 0.67250037 2.1516516
-0.036299236 0.67726964 2.1490142
-0.037007574 0.68212032 2.1460657
-0.037536297 0.68718702 2.1433299
-0.038188264 0.69240922 2.1409965
-0.038668849 0.69751221 2.1391196
-0.03937491 0.70272744 2.1373727
-0.040065501 0.70782405 2.1353862
-0.040248934 0.71302783 2.1329639
-0.040924892 0.71813095 2.1313345
-0.041369189 0.7234726 2.1288261
-0.042015161 0.72837698 2.1273892
-0.042462062 0.73359126 2.1259687
-0.04312006 0.73909628 2.1245196
-0.043446496 0.74419588 2.1220632
-0.044068906 0.74936897 2.1208138
-0.044434119 0.75479841 2.1194048
-0.044813231 0.75966293 2.1178248
-0.045094647 0.76493031 2.1163466
-0.045639411 0.77048421 2.1150444
-0.046248332 0.77565908 2.1137111
-0.046406683 0.78145528 2.1134217
-0.046771463 0.78698206 2.1119168
-0.047634728 0.80335093 2.1087847
-0.047845159 0.80900741 2.108624
-0.048478294 0.82663405 2.1080399
-0.048507329 0.83222508 2.108094
-0.048657946 0.83802176 2.1080599
-0.049239404 0.88231289 2.1094894
-0.050959274 1.0395032 2.1163447
-0.0042303759 0.57241333 2.2711933
-0.0062383544 0.57556587 2.2622616
-0.0088397535 0.5794605 2.2553039
-0.010551121 0.58360314 2.2466216
-0.012534097 0.58730489 2.23897
-0.01405635 0.59148926 2.2317708
-0.015370603 0.59556109 2.2248089
-0.016921867 0.59943759 2.2197633
-0.018391881 0.60336596 2.2137339
-0.019843429 0.60788143 2.2079785
-0.021147814 0.61225033 2.2026672
-0.022100123 0.61682391 2.1978865
-0.023618072 0.6210463 2.1928704
-0.024568208 0.6255601 2.188432
-0.025665423 0.63014781 2.1840107
-0.026621012 0.63465708 2.1797709
-0.027798541 0.63953948 2.1756849
-0.028611347 0.64378548 2.1719534
-0.029550031 0.64855975 2.1677132
-0.030599376 0.65345401 2.1646888
-0.031344987 0.65821081 2.1609573
-0.032368731 0.66304356 2.1576765
-0.033160903 0.66769898 2.1545398
-0.033979081 0.6723572 2.1513441
-0.034583084 0.67731488 2.1480954
-0.035215572 0.68236268 2.1457236
-0.036074318 0.68756652 2.1432707
-0.036698841 0.69251734 2.1410336
-0.03709748 0.69753885 2.1385508
-0.037805591 0.70272279 2.1365747
-0.038407423 0.70761478 2.1347778
-0.038971502 0.71351635 2.1333802
-0.039311182 0.71819091 2.1310558
-0.039651047 0.72322363 2.1288543
-0.04063594 0.72822702 2.1269238
-0.040877629 0.73332429 2.1254246
-0.041536845 0.7387563 2.1238277
-0.041727934 0.74391657 2.1221223
-0.042822178 0.75230902 2.1199458
-0.042571418 0.75673711 2.1169131
-0.043654013 0.76296186 2.1164143
-0.043568905 0.76747 2.1140182
-0.04487494 0.77400082 2.1155815
-0.044800781 0.77905864 2.1131666
-0.045095395 0.78398687 2.1114395
-0.045540139 0.79006749 2.1118081
-0.045902591 0.79756123 2.1093667
-0.046087917 0.80299616 2.108253
-0.046204321 0.80931652 2.1085262
-0.046289667 0.81500268 2.1085722
-0.046683289 0.82084924 2.1081185
-0.046669375 0.82953995 2.1074018
-0.046969935 0.83518451 2.1074946
-0.047365066 0.8407408 2.1078961
-0.047179937 0.84773248 2.1088033
-0.047554538 0.85306031 2.1083467
-0.047743276 0.85896045 2.1082823
-0.047916878 0.86482948 2.1082962
-0.048128061 0.87081403 2.1084483
-0.048002116 0.88908678 2.109416
-0.047891703 0.89835578 2.1101925
-0.048081294 0.90416342 2.1101825
-0.048054989 0.91018039 2.1101563
-0.048429258 0.91559613 2.1096923
-0.048558392 0.92101479 2.1092329
-0.048636265 0.92707527 2.110049
-0.048486426 0.93373412 2.1108718
-0.048567809 0.93977898 2.110786
-0.048754573 0.94565606 2.1107755
-0.048808057 0.95115221 2.1107645
-0.048807103 0.95747286 2.1112108
-0.049200032 0.98800796 2.1129215
-0.049070448 0.99994797 2.113246
-0.049348347 1.0054643 2.1132777
-0.04945213 1.0112743 2.1131423
-0.049906842 1.0173949 2.1133866
-0.04947482 1.0235935 2.1144919
-0.049659576 1.0475636 2.1153631
-0.049958903 1.0531718 2.1151645
-0.049673386 1.0592963 2.1153729
-0.049575195 1.0651965 2.1154702
-0.050022382 1.0856943 2.1159322
0.014037664 0.56345582 2.3391626
-0.0079671433 0.58207041 2.2520576
-0.0095545687 0.5853923 2.2426252
-0.011258455 0.58940238 2.2362509
-0.013086968 0.59356785 2.2309618
-0.014550528 0.59753489 2.2228017
-0.015964676 0.60174257 2.2169476
-0.017246073 0.60590219 2.2116275
-0.018572161 0.61028725 2.2058103
-0.019895203 0.61474925 2.200654
-0.020918285 0.61904937 2.1954949
-0.022189194 0.62375891 2.1914129
-0.023345336 0.62793845 2.1862364
-0.024253769 0.63256073 2.1817901
-0.025640188 0.63737911 2.1777625
-0.026141897 0.64157242 2.1736374
-0.0271916 0.64617652 2.1700177
-0.028259072 0.65099233 2.166275
-0.029204065 0.65573537 2.1626506
-0.030155215 0.66082209 2.1596069
-0.030919457 0.66539621 2.1561542
-0.031728767 0.67013448 2.1529918
-0.032587044 0.67496538 2.1494424
-0.033184975 0.67956585 2.1469541
-0.033858489 0.68463278 2.1441681
-0.03456239 0.69001961 2.1417861
-0.035227437 0.69484246 2.1398983
-0.035669513 0.70032471 2.1377828
-0.03627336 0.70494473 2.1353421
-0.03720285 0.71048474 2.1335201
-0.037323032 0.71584463 2.1321447
-0.037936024 0.72051507 2.1295757
-0.038493179 0.72615492 2.127732
-0.039063774 0.7310499 2.1256773
-0.039601237 0.73643792 2.1240735
-0.040141977 0.74122381 2.1225393
-0.040784437 0.74642926 2.120153
-0.040903371 0.75203788 2.1191926
-0.041512456 0.75673759 2.1173015
-0.041971471 0.76217717 2.1154656
-0.042213887 0.76720876 2.1140363
-0.042843267 0.77348506 2.1139014
-0.043171365 0.77852809 2.1124895
-0.043488845 0.78415221 2.1111407
-0.043647479 0.7893548 2.1105678
-0.044192214 0.79502779 2.1094718
-0.044207785 0.8003788 2.1086111
-0.044556331 0.80657923 2.1090648
-0.04415895 0.81314301 2.109405
-0.044713087 0.81804562 2.1085103
-0.045045231 0.82341766 2.1070628
-0.045234822 0.82922751 2.1070096
-0.045382917 0.83501714 2.1069744
-0.045242783 0.84145588 2.1077831
-0.045434251 0.84716034 2.1077721
-0.045532666 0.85326582 2.1080346
-0.045570783 0.85923362 2.1081982
-0.045948658 0.86498183 2.1083088
-0.046132162 0.8708849 2.1085155
-0.046156526 0.88639444 2.1092751
-0.046294212 0.89234138 2.1093616
-0.046176653 0.89820158 2.1097269
-0.046331219 0.90390807 2.1095645
-0.046474777 0.90983385 2.1095278
-0.046776328 0.91562152 2.1096201
-0.04675341 0.92166513 2.1098871
-0.04650401 0.92810977 2.1108117
-0.046770081 0.9338277 2.1107512
-0.046986789 0.93966001 2.1102717
-0.047033221 0.94549406 2.1103063
-0.046958685 0.95142841 2.110749
-0.046978749 0.95707983 2.1109095
-0.047164541 0.98774225 2.1120181
-0.047617808 0.99283016 2.1119835
-0.047299486 0.99998289 2.1131582
-0.047563795 1.0055341 2.1131046
-0.047527675 1.0114437 2.1130826
-0.047501504 1.0174055 2.1134548
-0.047303565 1.0239342 2.1141944
-0.047449131 1.0306628 2.115299
-0.04812232 1.044279 2.1144774
-0.047543909 1.0572332 2.1159503
-0.04785059 1.0626453 2.1158702
-0.048467837 1.0675379 2.1149809
-0.048204128 1.0749342 2.1166136
-0.048010979 1.0809911 2.1173635
-0.04820824 1.0863861 2.1166577
0.011796809 0.56346977 2.3167541
0.0071092816 0.56555933 2.3010287
0.0035459877 0.56743145 2.2868657
-0.00060726184 0.57417101 2.2683799
-0.0028723332 0.57793438 2.2585232
-0.0053053307 0.58188707 2.2517529
-0.0070279436 0.58559281 2.2428763
-0.008800474 0.58924055 2.2354658
-0.010487792 0.5934431 2.2294908
-0.012142028 0.59768856 2.2232435
-0.013651442 0.60206461 2.2165256
-0.014806528 0.60568231 2.2108655
-0.016090758 0.60975254 2.2053328
-0.017595684 0.61468804 2.1999743
-0.019004317 0.61935568 2.1960511
-0.020144254 0.62370658 2.1910875
-0.02145824 0.62820816 2.186532
-0.022409774 0.63266259 2.1815662
-0.023456628 0.63713199 2.1776726
-0.024196494 0.64151752 2.1732762
-0.025589069 0.64664716 2.1704698
-0.026339492 0.65074164 2.1662197
-0.027462764 0.65640211 2.1631927
-0.02816401 0.66066754 2.1599803
-0.029019294 0.66519254 2.1554987
-0.03008105 0.67029595 2.1529756
-0.030900896 0.67534196 2.1494901
-0.031297605 0.67947268 2.1461051
-0.03202837 0.68480211 2.1443584
-0.032520033 0.68943644 2.1416461
-0.033519112 0.69501311 2.139678
-0.034022827 0.70010161 2.1371191
-0.034557 0.70516855 2.1344118
-0.035337117 0.71042466 2.1332815
-0.03596247 0.715846 2.131964
-0.036169767 0.72073227 2.1300881
-0.036805466 0.72576731 2.1274359
-0.037361626 0.73083866 2.1256649
-0.038220298 0.73622411 2.1246252
-0.038611021 0.74132788 2.1229734
-0.038535126 0.74565971 2.1188986
-0.039827317 0.75639635 2.1163719
-0.040733766 0.76297945 2.1164839
-0.04063816 0.76724368 2.1141489
-0.04125873 0.77345747 2.1137416
-0.041616675 0.7812894 2.111623
-0.041763607 0.78640991 2.110091
-0.043012135 0.80067235 2.1090367
-0.043570314 0.82635611 2.1065586
-0.043720517 0.83185017 2.1063583
-0.043769728 0.84397805 2.1071541
-0.044989958 0.96020663 2.1097424
-0.045699183 0.96713603 2.1115108
0.014498886 0.56272042 2.3130682
0.0093181608 0.56579673 2.3019626
0.005806644 0.56799001 2.2881854
0.0012379141 0.57477653 2.2693675
-0.00070714194 0.57828838 2.2600338
-0.002940505 0.58198559 2.251817
-0.0048981211 0.58594805 2.2446096
-0.0068427594 0.58988941 2.2374196
-0.0090419631 0.59394741 2.2307861
-0.010468923 0.59828848 2.2245402
-0.012045786 0.60212177 2.2180552
-0.013415754 0.60648763 2.2118864
-0.014841157 0.61065942 2.2069187
-0.016039949 0.61516577 2.2016551
-0.017178981 0.61957151 2.1959937
-0.018411521 0.62394822 2.191807
-0.019836333 0.62834811 2.1868412
-0.020787874 0.63285106 2.1824107
-0.021800848 0.63723195 2.1782777
-0.022621604 0.6416955 2.1739879
-0.023952609 0.64688289 2.1703267
-0.024785107 0.65131742 2.1663449
-0.025684243 0.6560123 2.1625829
-0.026678458 0.66074556 2.1592796
-0.027383985 0.66555613 2.1555676
-0.028183637 0.67002451 2.1524217
-0.029168913 0.67510033 2.1495888
-0.02982696 0.67971522 2.1463459
-0.030643543 0.68488598 2.1444814
-0.031251721 0.68994629 2.1415405
-0.032052215 0.69490743 2.138941
-0.032527275 0.70009154 2.1371214
-0.033040706 0.7050969 2.1348047
-0.033683889 0.71007591 2.1328142
-0.034193836 0.71555471 2.1308858
-0.034659646 0.72072047 2.1292608
-0.035291664 0.72561997 2.1266999
-0.035830658 0.73062038 2.1252601
-0.03620911 0.73619694 2.1236308
-0.036886867 0.74136364 2.1218715
-0.037321106 0.7464425 2.1197948
-0.037893973 0.75433385 2.117202
-0.038510561 0.75942266 2.116019
-0.038822226 0.76473022 2.114126
-0.039339054 0.77011734 2.1129687
-0.039735012 0.77581835 2.1115396
-0.04001287 0.78082108 2.1109738
-0.040241268 0.78644329 2.1096041
-0.041504715 0.80545217 2.1065335
-0.041476537 0.81132215 2.1073303
-0.041890495 0.82335496 2.1060414
-0.042115346 0.82882816 2.1060138
-0.042263467 0.8350516 2.105912
-0.042499471 0.87472391 2.1087673
-0.043331161 0.89409751 2.1072779
-0.043950293 0.94220489 2.1097348
-0.044389155 0.99053025 2.1109281
0.0079256939 0.56858534 2.2902369
0.0053794193 0.57107002 2.2771595
-0.00096816942 0.58240288 2.2526181
-0.0053827581 0.59059572 2.239315
-0.0065100528 0.59418035 2.2313242
-0.0081278654 0.59785843 2.2233152
-0.0098447213 0.60223037 2.2178383
-0.010854515 0.60603344 2.2112646
-0.012619952 0.61058676 2.206784
-0.013821104 0.61500466 2.2013912
-0.014966437 0.61909926 2.1953952
-0.016265087 0.62378865 2.1912785
-0.017874178 0.62872654 2.187665
-0.018774686 0.63303065 2.1824126
-0.019883452 0.63750452 2.1783555
-0.020790132 0.64206356 2.1737337
-0.022151954 0.64687628 2.1705368
-0.022940952 0.65158099 2.1667264
-0.023787528 0.65591443 2.1625504
-0.024787907 0.66086745 2.1593137
-0.025891151 0.66592026 2.1560352
-0.026482426 0.66996861 2.1530685
-0.027134359 0.67502761 2.1493285
-0.028092925 0.67994106 2.1466868
-0.029021895 0.68501574 2.1444013
-0.029662071 0.68987787 2.1408985
-0.030402731 0.69545054 2.1390965
-0.030796221 0.69986439 2.136852
-0.031553105 0.70555592 2.1352353
-0.031929746 0.7101385 2.1324584
-0.032514479 0.71524531 2.130856
-0.033223595 0.72100198 2.1292892
-0.03378623 0.72553873 2.1267009
-0.034028061 0.73080444 2.1242664
-0.034768011 0.73623556 2.1233425
-0.035439499 0.74129283 2.1213465
-0.035666797 0.74666423 2.1193535
-0.036400586 0.75141138 2.1180327
-0.036616366 0.75699204 2.1161675
-0.037584182 0.76216811 2.1145005
-0.037729744 0.76780307 2.1141987
-0.037932992 0.77330041 2.112417
-0.038488176 0.78102726 2.1104348
-0.0387161 0.78664881 2.1090646
-0.039413467 0.79467756 2.10796
-0.039826974 0.80010676 2.1066711
-0.039730392 0.80856335 2.10694
-0.040263649 0.81762177 2.1064451
-0.040274959 0.82298166 2.1052825
-0.040406972 0.82875919 2.1050801
-0.040476348 0.83809882 2.1062357
-0.040629122 0.84399307 2.106241
-0.040977791 0.84961927 2.1057558
-0.041180875 0.85537589 2.1056643
-0.041154195 0.86129773 2.1056364
-0.041516911 0.8672027 2.1061974
-0.041280035 0.87710607 2.1072705
-0.041408271 0.88265985 2.1070104
-0.041306976 0.89773655 2.1079624
-0.041586898 0.90361267 2.1080012
-0.041772135 0.90942591 2.1079895
-0.042260151 0.92689472 2.1078601
-0.042259242 0.93295866 2.108422
-0.042034268 0.93937272 2.1087375
-0.042399496 0.94536567 2.1089385
-0.042515248 0.95095527 2.1085858
-0.041857243 0.95902145 2.1086786
-0.042431682 0.98361719 2.1093092
-0.041903514 1.0121213 2.1078103
-0.04305774 1.0233523 2.1121345
-0.043253966 1.0291945 2.1121619
-0.043397132 1.0405896 2.1125395
-0.04267611 1.0547723 2.1119962
-0.04272363 1.0600269 2.1112418
-0.042244017 1.0650061 2.1103225
-0.042535584 1.0722301 2.1120422
-0.042686775 1.0781479 2.1123078
-0.042757135 1.0831643 2.1119282
-0.044948079 1.1802936 2.1186948
0.020482471 0.56767434 2.3421812
0.011171622 0.56884223 2.3001544
0.0086705433 0.57012236 2.2852459
0.0066331914 0.57328647 2.2742968
0.004410686 0.57738441 2.2669773
0.0021791419 0.58095247 2.2580822
9.0470792e-05 0.58482397 2.2510679
-0.0017878199 0.58850402 2.2427213
-0.0034357803 0.59212947 2.2344713
-0.0053083836 0.5963484 2.2279394
-0.0069674705 0.60041827 2.2216027
-0.008648904 0.60481507 2.2156999
-0.010239463 0.60899967 2.210068
-0.011395343 0.61358136 2.2053397
-0.01273945 0.61754191 2.1994805
-0.013820034 0.62181258 2.1946509
-0.015185416 0.62643206 2.189395
-0.016704816 0.63123286 2.1859498
-0.01786829 0.63545066 2.1814401
-0.018571641 0.6397357 2.1764834
-0.019618426 0.64444929 2.1726015
-0.020741342 0.64948469 2.168627
-0.021791482 0.65391409 2.1652334
-0.022700416 0.65853721 2.1615398
-0.023497028 0.66346991 2.1576893
-0.024312612 0.66808575 2.1542327
-0.025139298 0.67272723 2.1509206
-0.025999276 0.67759311 2.1477976
-0.026888102 0.68274838 2.1450272
-0.027823389 0.6876623 2.1431217
-0.028336758 0.69266474 2.1399403
-0.028515168 0.69717354 2.136709
-0.029592805 0.70274031 2.1361413
-0.029983165 0.70786273 2.1333544
-0.030315554 0.71268553 2.1309471
-0.031427361 0.71836382 2.1299555
-0.031279281 0.72285187 2.1268518
-0.032271795 0.72827911 2.1254368
-0.033348322 0.73387188 2.1248569
-0.033176918 0.7384969 2.1213763
-0.034147024 0.74396461 2.1197603
-0.034068294 0.74876964 2.1174183
-0.035143871 0.75467753 2.1168773
-0.035062917 0.75918156 2.1144872
-0.035967994 0.76437002 2.1138074
-0.036128018 0.77010149 2.1122994
-0.036919154 0.77564615 2.1112368
-0.037102476 0.78153437 2.1101325
-0.037181299 0.78635323 2.1085114
-0.038388994 0.79773068 2.1077147
-0.038303491 0.80284566 2.1054151
-0.038690951 0.81736743 2.1056695
-0.038855057 0.82308412 2.1049814
-0.038995508 0.82903373 2.1048923
-0.039289322 0.83855224 2.1065941
-0.039419483 0.84435886 2.1063919
-0.039660923 0.85098404 2.1073256
-0.03919201 0.8557964 2.1062529
-0.039319966 0.86131465 2.1059942
-0.039613254 0.86825162 2.1076591
-0.039542496 0.87644148 2.1063275
-0.039554685 0.88281584 2.1072261
-0.039801858 0.88845879 2.1070647
-0.039879035 0.89493203 2.1071093
-0.03988279 0.90038902 2.1074467
-0.039920472 0.90709537 2.1078463
-0.040294684 0.91212273 2.1073766
-0.04016206 0.93045437 2.1087863
-0.040261015 0.93865049 2.1076045
-0.040497944 0.9455058 2.1085565
-0.040051606 0.95080954 2.1078722
-0.041369237 0.99464732 2.1121235
-0.040942755 1.0149668 2.1113899
-0.04094613 1.0231844 2.1116107
-0.041275121 1.0351979 2.1124029
-0.041175675 1.0404702 2.1119297
-0.040842909 1.0455146 2.1107249
-0.041207016 1.0578094 2.1118898
-0.042017993 1.0659947 2.1147039
-0.041039374 1.0703425 2.112956
-0.041259088 1.0769229 2.1139522
-0.041155394 1.0822452 2.1134765
-0.041664287 1.0946174 2.1148033
-0.041000318 1.0981802 2.1120627
-0.041257013 1.1049175 2.1134131
-0.041358244 1.1109098 2.1132901
-0.043143768 1.1706716 2.1174245
0.015680695 0.56853932 2.3089213
0.0092094811 0.57242918 2.2807429
0.0031853628 0.58350396 2.2557862
0.0011084016 0.58724374 2.2476318
-0.00063905818 0.59065205 2.2399614
-0.0026508183 0.59500796 2.233593
-0.0043407441 0.59914762 2.2259743
-0.0061810389 0.60326016 2.2201622
-0.0076765781 0.60754162 2.2143857
-0.0090538757 0.6116249 2.2082937
-0.010088566 0.61591309 2.2033403
-0.011563052 0.62005997 2.1981261
-0.012776153 0.6244542 2.1923363
-0.014015937 0.62908459 2.1879475
-0.015168442 0.63356197 2.1833498
-0.016191833 0.63766015 2.1786394
-0.017453192 0.64240783 2.1751409
-0.018397506 0.64680201 2.1706576
-0.019391185 0.65147525 2.167012
-0.020118937 0.65612334 2.1628921
-0.021313749 0.66106606 2.1595507
-0.022187604 0.66599447 2.1558206
-0.023107069 0.67049336 2.1522598
-0.023947876 0.67541522 2.1490142
-0.024686921 0.68021256 2.1464324
-0.025275197 0.68502164 2.1435227
-0.026086891 0.68986428 2.1410818
-0.026878158 0.69512028 2.1382778
-0.027328223 0.70008427 2.1363494
-0.027842641 0.70503771 2.1339691
-0.028654264 0.70993394 2.1319671
-0.029060202 0.71560937 2.1306837
-0.029830167 0.72066092 2.1278973
-0.030202417 0.72586364 2.1260142
-0.030647179 0.73077595 2.1243284
-0.031404458 0.7355172 2.1216452
-0.031705555 0.74086607 2.1200066
-0.032444458 0.7461049 2.1183996
-0.032988761 0.75158513 2.1168122
-0.033423863 0.75669062 2.1155508
-0.033499345 0.76191789 2.1136789
-0.034422178 0.76767331 2.1127472
-0.034829441 0.77566171 2.1107681
-0.03494522 0.78082401 2.1089058
-0.035752766 0.78871936 2.1079118
-0.036731698 0.81214756 2.1064312
-0.0371341 0.82019281 2.1044359
-0.037263889 0.82565707 2.1043873
-0.037539002 0.83150327 2.1043417
-0.037411813 0.84061557 2.1050191
-0.037891563 0.84665674 2.1055505
-0.03835151 0.90054548 2.1069787
-0.039395303 0.96577376 2.1087821
-0.039782599 1.0083402 2.1108456
-0.03978724 1.0141394 2.1108501
0.021130949 0.56757116 2.3177876
0.016304407 0.56936646 2.3022118
0.013017428 0.57090151 2.2867439
0.0063607972 0.58238226 2.262161
0.0042503453 0.58596593 2.2526982
0.0024032067 0.58957052 2.245573
0.00061511964 0.59322846 2.2380614
-0.0015185472 0.59732395 2.2310562
-0.0031173467 0.60132974 2.2240899
-0.0048581394 0.60549891 2.2182748
-0.006426644 0.60958284 2.2116761
-0.0078623714 0.61428726 2.2061417
-0.009037789 0.6180625 2.201412
-0.010566372 0.6226514 2.1961207
-0.01159376 0.62702185 2.190805
-0.012924946 0.63153511 2.1861708
-0.014025421 0.63609248 2.1816339
-0.014994008 0.64033061 2.1771216
-0.016239874 0.64498752 2.172946
-0.017063374 0.64959848 2.1687672
-0.01815702 0.65435922 2.1653957
-0.019003425 0.65877825 2.1614492
-0.020021733 0.66360998 2.1576314
-0.020871965 0.66805249 2.1539381
-0.02166581 0.67284703 2.1505866
-0.022519864 0.67772406 2.147754
-0.023306308 0.68277758 2.1447072
-0.024086222 0.68749464 2.1420157
-0.024684088 0.69240969 2.1393702
-0.025430689 0.69767106 2.1369045
-0.026099397 0.70241296 2.1345475
-0.026655508 0.70780331 2.1327195
-0.027356604 0.71305925 2.1303983
-0.027795972 0.7181946 2.1283865
-0.02835362 0.72321594 2.1265123
-0.028976003 0.72804832 2.1243227
-0.02958237 0.73312885 2.1226118
-0.03009163 0.73860013 2.1206374
-0.030830435 0.74346346 2.1184168
-0.031267051 0.74909455 2.1171145
-0.031587165 0.75393641 2.1152415
-0.032072861 0.75934923 2.1136765
-0.032579418 0.76437789 2.1122937
-0.03295463 0.76951069 2.1104813
-0.033317771 0.77547467 2.1098907
-0.033546828 0.78072953 2.1088395
-0.034103863 0.78613877 2.1074371
-0.035080988 0.80238861 2.1045325
-0.03558613 0.81982684 2.1038904
-0.035768401 0.82566047 2.1038249
-0.035953872 0.83133054 2.1038113
-0.035768617 0.83795226 2.1046305
-0.036029682 0.84351426 2.1045725
-0.036793236 0.88239646 2.1058118
-0.036851004 0.88835114 2.1054137
-0.037026975 0.9210583 2.1069288
-0.037385829 0.9491356 2.1084735
0.027070224 0.56819183 2.3335559
0.020870429 0.56927615 2.3124344
0.017496372 0.57062894 2.2963252
0.013973065 0.57260311 2.2814431
0.011248584 0.57612002 2.2741158
0.0096345218 0.58104169 2.2671769
0.0076100565 0.58419991 2.2579775
0.0051109139 0.58841282 2.2505462
0.0039225495 0.59141815 2.2421558
0.0019883814 0.59538442 2.2345629
0.00021725555 0.59932536 2.2272015
-0.0015145008 0.60356963 2.2216425
-0.0031028872 0.60747844 2.2143805
-0.0053470475 0.61203438 2.2096488
-0.0062988088 0.61627132 2.2041512
-0.0077374438 0.62055564 2.1988156
-0.0089882864 0.62497598 2.1937332
-0.010188244 0.62944335 2.1887379
-0.011435599 0.6340006 2.1841395
-0.012545438 0.63828224 2.1795924
-0.013444928 0.64270151 2.1751404
-0.014856794 0.64739001 2.1711833
-0.015856598 0.65217954 2.166815
-0.016822513 0.65683144 2.1633778
-0.017715089 0.66122603 2.1591644
-0.018616293 0.6661787 2.1562152
-0.019374626 0.67079234 2.1525612
-0.020094384 0.67547399 2.148972
-0.021037636 0.67998272 2.1460192
-0.021882964 0.68493474 2.1432304
-0.022646282 0.68995148 2.1408255
-0.023454012 0.69482309 2.1380253
-0.023997761 0.70017445 2.1355388
-0.024753643 0.70489639 2.1337895
-0.025259057 0.71025485 2.1308587
-0.025798352 0.71544713 2.1291902
-0.026410915 0.72052842 2.1273143
-0.02701566 0.72579581 2.1248853
-0.027433993 0.73037326 2.1234012
-0.028166726 0.73570877 2.1210051
-0.028636115 0.74075127 2.1190395
-0.029170319 0.74619716 2.1172152
-0.029734921 0.75150418 2.1160076
-0.030398667 0.75655955 2.1147547
-0.030405564 0.76178658 2.1126509
-0.030892983 0.76702982 2.1111341
-0.031617455 0.7751804 2.1093194
-0.032101654 0.78049302 2.1083417
-0.032527462 0.78597265 2.1069062
-0.03298958 0.79090023 2.1054318
-0.033089232 0.79671001 2.105103
-0.033171851 0.80277014 2.1048656
-0.033643983 0.81395823 2.1047788
-0.034146499 0.82261848 2.1032219
-0.034311909 0.82812506 2.1032701
-0.034202598 0.83761889 2.1039972
-0.034313541 0.84371722 2.1040578
-0.034311276 0.84931767 2.1039298
-0.034787759 0.86462325 2.1048541
-0.034959294 0.86982554 2.1044178
-0.034701813 0.8762117 2.1045132
-0.035182033 0.88819402 2.1050875
-0.035369266 0.89423966 2.1053736
-0.035243291 0.90034872 2.1058691
-0.035460521 0.9059099 2.1054838
-0.035694245 0.91155982 2.1053736
-0.035760097 0.91755968 2.1057186
-0.036054287 0.96322638 2.1077275
-0.03625676 0.97189093 2.1076705
-0.036603205 1.0139664 2.1094227
-0.036978647 1.0191683 2.1091866
-0.036938164 1.0286599 2.1095517
-0.03707961 1.0403451 2.1101196
-0.037073705 1.0640174 2.110889
-0.037219092 1.0699468 2.1113791
-0.037204459 1.0760527 2.1116316
-0.037489437 1.0845035 2.1116126
0.02931297 0.56988269 2.338063
0.019741036 0.57119358 2.2990282
0.015978174 0.57330275 2.2832806
0.0096956855 0.58504653 2.259551
0.0078107729 0.58852595 2.2506876
0.0056456253 0.59156299 2.2436764
0.0042332015 0.59535259 2.234787
0.00211679 0.59963858 2.2287145
1.3535492e-05 0.60451639 2.2229295
-0.0015307628 0.60838151 2.2167876
-0.0030287339 0.61261046 2.2106676
-0.0044631381 0.61659515 2.2055223
-0.0058742412 0.62084258 2.1995759
-0.00685794 0.62508583 2.1940823
-0.0083182519 0.6297881 2.1891596
-0.009288908 0.63403511 2.1845407
-0.010620832 0.63882363 2.1800487
-0.011571099 0.64281327 2.1757126
-0.012916788 0.64747447 2.1713846
-0.014121791 0.6525526 2.1675601
-0.015031509 0.6569683 2.1632452
-0.015939796 0.66139609 2.1595631
-0.016738258 0.66610128 2.155694
-0.017654821 0.67075765 2.1528101
-0.018430477 0.67580283 2.1492207
-0.019271886 0.68036383 2.1462467
-0.020120243 0.68535912 2.1433346
-0.021131432 0.69029385 2.1404438
-0.021705827 0.69506156 2.1378853
-0.022374701 0.70029628 2.1354029
-0.022971714 0.7049309 2.1331093
-0.023531178 0.71032441 2.130996
-0.024271542 0.71534652 2.1283596
-0.024788482 0.72049218 2.127311
-0.025250029 0.72533649 2.1247292
-0.025875121 0.73042297 2.122606
-0.02638136 0.73564327 2.1208005
-0.027001327 0.74093568 2.1189449
-0.027539611 0.74602389 2.1168859
-0.028073294 0.75120193 2.1153936
-0.028682508 0.75666177 2.1139903
-0.028862026 0.7616055 2.1120529
-0.029418601 0.76700079 2.1106558
-0.02985586 0.77258837 2.1092494
-0.030308696 0.77769655 2.1082156
-0.03063176 0.78320503 2.1066215
-0.03094686 0.78868449 2.1060715
-0.031658355 0.79391545 2.1049712
-0.031488948 0.79965466 2.1043062
-0.031740297 0.80561 2.1043615
-0.032495908 0.81680238 2.1031516
-0.032467511 0.82280254 2.1030853
-0.032601122 0.82852864 2.103214
-0.032489602 0.83485729 2.1035814
-0.032543376 0.84024644 2.1035075
-0.032779962 0.84631526 2.1034763
-0.033400744 0.86771089 2.1051965
-0.033268314 0.88566822 2.1046381
-0.0334002 0.89095682 2.1046393
-0.033865862 0.8973946 2.1063426
-0.033739135 0.90301794 2.105382
-0.033737574 0.90872902 2.1050251
-0.033968892 0.91459548 2.1050386
-0.03336817 0.92487955 2.1070116
-0.033716843 0.93044806 2.1065691
-0.034050807 0.93844831 2.1056387
-0.034147359 0.94392335 2.1055787
-0.034497716 0.95416063 2.1063881
-0.03437449 0.96049094 2.1072483
-0.034419056 0.96599263 2.1075962
-0.034604181 0.97212452 2.107445
-0.034149885 0.98422652 2.1087751
-0.034608301 0.99920321 2.1088703
-0.034711994 1.0050247 2.1087399
-0.034216329 1.0103059 2.1077013
-0.034466345 1.0168263 2.1090238
-0.0347564 1.0228138 2.1098175
-0.035154533 1.0440181 2.110539
-0.03523403 1.0499051 2.1112227
-0.035059262 1.0690053 2.1096752
-0.035618089 1.0968469 2.1120744
0.028318183 0.57138234 2.3305004
0.016527355 0.57509512 2.2787814
0.014318242 0.57872796 2.2707665
0.012500223 0.58351201 2.264261
0.010678258 0.58739424 2.2567227
0.008695242 0.59106565 2.2493849
0.0069831368 0.59434873 2.2409708
0.0052309679 0.59823006 2.2329123
0.0032026647 0.60219747 2.2267659
0.0011098109 0.60647237 2.2205281
-0.00010926378 0.6103645 2.2136712
-0.0016627103 0.61500496 2.2078764
-0.0030634219 0.61932778 2.2032621
-0.00447375 0.6233663 2.1972477
-0.0057869344 0.62770176 2.1924756
-0.0069182198 0.63164383 2.1875629
-0.0081040123 0.63667881 2.1830456
-0.0094906026 0.64124304 2.1782777
-0.010535284 0.64542025 2.1740694
-0.011397953 0.64986628 2.1695125
-0.012801833 0.65496099 2.1656287
-0.013520716 0.65966278 2.1613824
-0.014605519 0.66411573 2.1582701
-0.015389424 0.66856623 2.1545868
-0.01640177 0.67337072 2.1510847
-0.01717086 0.67827785 2.1479099
-0.01802896 0.68296522 2.1447334
-0.018981906 0.6880486 2.1419914
-0.019701676 0.6927979 2.139092
-0.02034937 0.69772154 2.1369357
-0.021010756 0.70274359 2.1344962
-0.021644343 0.70766443 2.1318264
-0.022234034 0.71301317 2.1294785
-0.022766113 0.71783572 2.1275175
-0.023449037 0.72274238 2.1253066
-0.024091357 0.72817338 2.1238465
-0.024561225 0.73302269 2.1215012
-0.025122881 0.73816258 2.1191549
-0.025616201 0.74323696 2.1177015
-0.026226897 0.7483356 2.1162786
-0.026667755 0.75367218 2.1137688
-0.027309945 0.76182479 2.1115661
-0.027892593 0.76715332 2.1103096
-0.028490195 0.7751978 2.1086671
-0.028778262 0.78050345 2.1069791
-0.029924005 0.79663843 2.1038828
-0.030028777 0.80255938 2.1038611
-0.030777875 0.81685024 2.1023943
-0.030981742 0.82201684 2.1022127
-0.030817565 0.83461952 2.1029365
-0.030978167 0.84046406 2.1030226
-0.031213183 0.84597713 2.102839
-0.031599827 0.87344021 2.104135
-0.031862617 0.89418012 2.1048021
-0.032003768 0.90017635 2.1048069
-0.032785248 0.92007864 2.1037815
0.0315542 0.57123643 2.3311303
0.02209866 0.57380241 2.2960684
0.018682763 0.57546842 2.280268
0.016102025 0.57919663 2.2708549
0.014541759 0.5836246 2.2656269
0.012976286 0.58775693 2.257159
0.010811977 0.59125614 2.2502465
0.0090663005 0.59474039 2.2415359
0.0069301166 0.59914666 2.2354016
0.0051575163 0.60264122 2.2276323
0.0030215757 0.60733908 2.2221267
0.001672261 0.61096454 2.2153518
-5.7018037e-06 0.61526221 2.209897
-0.0013784003 0.61960912 2.2036378
-0.0027358069 0.62382174 2.1986392
-0.0038553274 0.62794381 2.1931601
-0.0052256999 0.63238412 2.1885281
-0.0064431559 0.63690692 2.1834369
-0.0077156299 0.64152431 2.1789541
-0.0087169213 0.64569771 2.1743398
-0.0097968457 0.65034032 2.1699047
-0.011010558 0.65481943 2.1660697
-0.012017806 0.65967751 2.162138
-0.01271519 0.66418445 2.1582873
-0.013652466 0.66890997 2.1544051
-0.014788334 0.67361158 2.1511712
-0.015419904 0.67819512 2.1484516
-0.016164653 0.68292868 2.1445055
-0.017114732 0.68765926 2.1415927
-0.017837988 0.69280154 2.1392426
-0.018629938 0.69777364 2.1367729
-0.019198535 0.70270318 2.1340756
-0.019909725 0.70783782 2.1318212
-0.020454939 0.71289045 2.1295757
-0.021301968 0.71809554 2.1271968
-0.021968175 0.72296095 2.1252561
-0.02224941 0.72805882 2.1235604
-0.023089178 0.73355037 2.1214042
-0.023640448 0.73838896 2.1188147
-0.024197496 0.74309897 2.1168659
-0.02470501 0.74885076 2.1153264
-0.025114154 0.75393897 2.1135321
-0.025824193 0.75877094 2.1115458
-0.026193541 0.76443142 2.1102462
-0.02629582 0.76967663 2.1090155
-0.026948582 0.77483892 2.1081164
-0.027213225 0.78020293 2.106302
-0.027841726 0.78571707 2.1052597
-0.028309481 0.79360759 2.1038785
-0.029136064 0.81650591 2.1017859
-0.029282479 0.82235223 2.1017864
-0.029219085 0.82837069 2.1021235
-0.029303884 0.83460099 2.1025183
-0.029484492 0.84028625 2.1025045
-0.0296757 0.84556162 2.1023681
-0.030126104 0.87363076 2.1040246
-0.030016679 0.8794201 2.1038706
-0.030474324 0.88487011 2.1036749
-0.030705718 0.89014864 2.1035011
-0.030427897 0.89982092 2.104162
-0.030630693 0.90607262 2.1041877
-0.030979363 0.93860704 2.1049566
-0.031304784 0.94450539 2.1052444
-0.031480353 0.95038307 2.105231
0.031485643 0.57217151 2.3219519
0.02639986 0.57338691 2.305382
0.022492751 0.57515097 2.2888792
0.01963177 0.5770846 2.2753987
0.01211855 0.59343243 2.2482207
0.010153256 0.59702164 2.2395287
0.0076511959 0.60124141 2.2334461
0.0064665852 0.60488403 2.2248986
0.0048186057 0.60908037 2.2193143
0.003282028 0.61339456 2.2131553
0.0017092794 0.61767071 2.2068567
-1.6929071e-05 0.62200242 2.201437
-0.00090905518 0.62542391 2.1954923
-0.002429245 0.63023835 2.1907487
-0.0036831659 0.63477057 2.1859298
-0.0049923612 0.63926989 2.181819
-0.0065790243 0.64380109 2.1772966
-0.0073052831 0.64830691 2.1723595
-0.0083752628 0.65255111 2.1685758
-0.0095957918 0.65748131 2.1647582
-0.010885137 0.66239709 2.1607304
-0.011597506 0.66663724 2.1568015
-0.012541123 0.67134488 2.1538014
-0.013283292 0.6760993 2.1492631
-0.014156497 0.68062204 2.1465924
-0.015019902 0.68549836 2.1434531
-0.016022034 0.69067448 2.1409042
-0.016631629 0.69555122 2.1370208
-0.017166248 0.70029843 2.1351216
-0.018119402 0.70546579 2.1330488
-0.01846276 0.70994145 2.1300585
-0.019166723 0.71556735 2.1279318
-0.019809503 0.72088969 2.1253452
-0.02086669 0.72592801 2.1247866
-0.021277804 0.73094279 2.1221998
-0.021676233 0.73600858 2.1197164
-0.022282697 0.74088621 2.1184139
-0.022470839 0.74553752 2.1146619
-0.02358718 0.75119817 2.1145921
-0.024032395 0.75632882 2.1126211
-0.024527021 0.76182956 2.1112077
-0.024460629 0.76686662 2.1088126
-0.025515001 0.77284181 2.1083798
-0.025739549 0.77760279 2.1062932
-0.026345544 0.78323251 2.106426
-0.026625296 0.78866267 2.1052053
-0.026555188 0.79370093 2.1028039
-0.0266771 0.79972124 2.1026487
-0.026855661 0.80561566 2.1032362
-0.026909027 0.8109377 2.1023028
-0.027556553 0.82581878 2.1020086
-0.027667839 0.83121413 2.1020231
-0.027786821 0.8368687 2.1019187
-0.028024765 0.84319198 2.1018744
-0.028173909 0.84896165 2.1019187
-0.028526081 0.85491717 2.102314
-0.028597811 0.89131403 2.1037767
-0.02885103 0.89669603 2.1037288
-0.028985867 0.90287 2.1036766
-0.029197037 0.9086473 2.1035883
-0.029106176 0.92303544 2.1035328
-0.029099355 0.92876923 2.1031735
-0.029268652 0.95849097 2.1039579
-0.029360428 0.96416819 2.1034913
-0.029590119 0.97046846 2.1046433
-0.030149585 0.98031932 2.1053679
-0.030566422 1.015735 2.1064999
-0.03018228 1.0549667 2.1088357
-0.030279346 1.060523 2.1086378
-0.031554952 1.067917 2.1113925
-0.031372461 1.0985576 2.1099834
0.035595838 0.57390225 2.3377781
0.030930368 0.57393813 2.3169484
0.026610021 0.57534754 2.2999876
0.023128349 0.57698083 2.2843516
0.015704306 0.5921343 2.2531223
0.013222929 0.59621239 2.2458425
0.01146653 0.59971893 2.2371809
0.0095836911 0.60335988 2.2290065
0.0077181873 0.60776496 2.2234602
0.0057725552 0.61183536 2.2178755
0.0044042743 0.61616093 2.2112687
0.0030205504 0.62004739 2.2050984
0.0015021163 0.62422836 2.1997592
-0.00013583725 0.62875038 2.1948299
-0.0013136504 0.6330753 2.1894233
-0.0025309171 0.63714296 2.18488
-0.003896645 0.64186364 2.1799276
-0.0047907159 0.64607447 2.1754448
-0.0059992312 0.65085357 2.1711195
-0.0070808544 0.6552729 2.1664979
-0.0082413899 0.6599803 2.1628561
-0.0091388142 0.66469187 2.1587744
-0.010316863 0.66924733 2.1553934
-0.010914283 0.67367506 2.1516094
-0.011914439 0.67832881 2.1479275
-0.012937983 0.68332011 2.1451111
-0.013653453 0.6880185 2.1415284
